-0.141376 3.84578 9.80123
-0.141377 3.84572 10.0012
5.17763 -1.05265 -9.98847
5.17724 -1.05236 -9.78847
5.17685 -1.05207 -9.58847
5.17647 -1.05178 -9.38847
5.17608 -1.05149 -9.18847
5.17569 -1.0512 -8.98847
5.17531 -1.05091 -8.78847
5.17492 -1.05062 -8.58847
5.17453 -1.05033 -8.38847
5.17415 -1.05003 -8.18847
5.17376 -1.04974 -7.98848
5.17337 -1.04945 -7.78848
5.17299 -1.04916 -7.58848
5.1726 -1.04887 -7.38848
5.17221 -1.04858 -7.18848
5.17182 -1.04829 -6.98848
5.17144 -1.048 -6.78848
5.17105 -1.0477 -6.58848
5.17066 -1.04741 -6.38848
5.17028 -1.04712 -6.18849
5.16989 -1.04683 -5.98849
5.1695 -1.04654 -5.78849
5.16912 -1.04625 -5.58849
5.16873 -1.04596 -5.38849
5.16834 -1.04567 -5.18849
5.16795 -1.04538 -4.98849
5.16757 -1.04508 -4.78849
5.16718 -1.04479 -4.58849
5.16679 -1.0445 -4.38849
5.16641 -1.04421 -4.1885
5.16602 -1.04392 -3.9885
5.16563 -1.04363 -3.7885
5.16525 -1.04334 -3.5885
5.16486 -1.04305 -3.3885
5.16447 -1.04275 -3.1885
5.16408 -1.04246 -2.9885
5.1637 -1.04217 -2.7885
5.16331 -1.04188 -2.5885
5.16292 -1.04159 -2.3885
5.16254 -1.0413 -2.1885
5.16215 -1.04101 -1.98851
5.16176 -1.04072 -1.78851
5.16138 -1.04043 -1.58851
5.16099 -1.04013 -1.38851
5.1606 -1.03984 -1.18851
5.16022 -1.03955 -0.988509
5.15983 -1.03926 -0.78851
5.15944 -1.03897 -0.588511
5.15905 -1.03868 -0.388512
5.15867 -1.03839 -0.188513
5.15828 -1.0381 0.0114864
5.15789 -1.0378 0.211486
5.15751 -1.03751 0.411485
5.15712 -1.03722 0.611484
5.15673 -1.03693 0.811483
5.15635 -1.03664 1.01148
5.15596 -1.03635 1.21148
5.15557 -1.03606 1.41148
5.15519 -1.03577 1.61148
5.1548 -1.03548 1.81148
5.15441 -1.03518 2.01148
5.15402 -1.03489 2.21148
5.15364 -1.0346 2.41148
5.15325 -1.03431 2.61148
5.15286 -1.03402 2.81147
5.15248 -1.03373 3.01147
5.15209 -1.03344 3.21147
5.1517 -1.03315 3.41147
5.15132 -1.03285 3.61147
5.15093 -1.03256 3.81147
5.15054 -1.03227 4.01147
5.15016 -1.03198 4.21147
5.14977 -1.03169 4.41147
5.14938 -1.0314 4.61147
5.14899 -1.03111 4.81147
5.14861 -1.03082 5.01146
5.14822 -1.03052 5.21146
5.14783 -1.03023 5.41146
5.14745 -1.02994 5.61146
5.14706 -1.02965 5.81146
5.14667 -1.02936 6.01146
5.14629 -1.02907 6.21146
5.1459 -1.02878 6.41146
5.14551 -1.02849 6.61146
5.14512 -1.0282 6.81146
5.14474 -1.0279 7.01145
5.14435 -1.02761 7.21145
5.14396 -1.02732 7.41145
5.14358 -1.02703 7.61145
5.14319 -1.02674 7.81145
5.1428 -1.02645 8.01145
5.14242 -1.02616 8.21145
5.14203 -1.02587 8.41145
5.14164 -1.02557 8.61145
5.14125 -1.02528 8.81145
5.14087 -1.02499 9.01145
5.14048 -1.0247 9.21144
5.14009 -1.02441 9.41144
5.13971 -1.02412 9.61144
5.13932 -1.02383 9.81144
5.13893 -1.02354 10.0114
4.80525 -0.709263 -9.98415
4.8047 -0.708823 -9.78418
4.80415 -0.708384 -9.5842
4.8036 -0.707945 -9.38423
4.80306 -0.707505 -9.18426
4.80251 -0.707066 -8.98428
4.80196 -0.706626 -8.78431
4.80141 -0.706187 -8.58433
4.80086 -0.705747 -8.38436
4.80032 -0.705308 -8.18438
4.79977 -0.704869 -7.98441
4.79922 -0.704429 -7.78443
4.79867 -0.70399 -7.58446
4.79813 -0.70355 -7.38448
4.79758 -0.703111 -7.18451
4.79703 -0.702672 -6.98453
4.79648 -0.702232 -6.78456
4.79594 -0.701793 -6.58458
4.79539 -0.701353 -6.38461
4.79484 -0.700914 -6.18463
4.79429 -0.700474 -5.98466
4.79374 -0.700035 -5.78468
4.7932 -0.699596 -5.58471
4.79265 -0.699156 -5.38473
4.7921 -0.698717 -5.18476
4.79155 -0.698277 -4.98478
4.79101 -0.697838 -4.78481
4.79046 -0.697398 -4.58483
4.78991 -0.696959 -4.38486
4.78936 -0.69652 -4.18489
4.78882 -0.69608 -3.98491
4.78827 -0.695641 -3.78493
4.78772 -0.695201 -3.58496
4.78717 -0.694762 -3.38498
4.78662 -0.694323 -3.18501
4.78608 -0.693883 -2.98503
4.78553 -0.693444 -2.78506
4.78498 -0.693004 -2.58508
4.78443 -0.692565 -2.38511
4.78389 -0.692125 -2.18513
4.78334 -0.691686 -1.98516
4.78279 -0.691247 -1.78518
4.78224 -0.690807 -1.58521
4.78169 -0.690368 -1.38523
4.78115 -0.689928 -1.18526
4.7806 -0.689489 -0.985284
4.78005 -0.68905 -0.785309
4.7795 -0.68861 -0.585334
4.77896 -0.688171 -0.385359
4.77841 -0.687731 -0.185384
4.77786 -0.687292 0.0145909
4.77731 -0.686853 0.214566
4.77677 -0.686413 0.414541
4.77622 -0.685974 0.614516
4.77567 -0.685534 0.814491
4.77512 -0.685095 1.01447
4.77457 -0.684655 1.21444
4.77403 -0.684216 1.41442
4.77348 -0.683777 1.61439
4.77293 -0.683337 1.81437
4.77238 -0.682898 2.01434
4.77184 -0.682458 2.21432
4.77129 -0.682019 2.41429
4.77074 -0.68158 2.61427
4.77019 -0.68114 2.81424
4.76965 -0.680701 3.01422
4.7691 -0.680261 3.21419
4.76855 -0.679822 3.41417
4.768 -0.679382 3.61414
4.76746 -0.678943 3.81412
4.76691 -0.678504 4.01409
4.76636 -0.678064 4.21407
4.76581 -0.677625 4.41404
4.76526 -0.677185 4.61402
4.76472 -0.676746 4.81399
4.76417 -0.676307 5.01397
4.76362 -0.675867 5.21394
4.76307 -0.675428 5.41392
4.76253 -0.674988 5.61389
4.76198 -0.674549 5.81387
4.76143 -0.674109 6.01384
4.76088 -0.67367 6.21382
4.76033 -0.673231 6.41379
4.75979 -0.672791 6.61376
4.75924 -0.672352 6.81374
4.75869 -0.671912 7.01371
4.75814 -0.671473 7.21369
4.7576 -0.671034 7.41366
4.75705 -0.670594 7.61364
4.7565 -0.670155 7.81361
4.75595 -0.669715 8.01359
4.75541 -0.669276 8.21356
4.75486 -0.668836 8.41354
4.75431 -0.668397 8.61351
4.75376 -0.667958 8.81349
4.75321 -0.667518 9.01346
4.75267 -0.667079 9.21344
4.75212 -0.666639 9.41341
4.75157 -0.6662 9.61339
4.75102 -0.665761 9.81336
4.75048 -0.665321 10.0133
9.20411 -4.76943 1.41395
9.05709 -4.63385 1.41391
8.91006 -4.49827 1.41386
8.76303 -4.36268 1.41381
8.616 -4.2271 1.41376
8.46898 -4.09152 1.41372
8.32195 -3.95594 1.41367
8.17492 -3.82036 1.41362
8.0279 -3.68478 1.41358
7.88087 -3.5492 1.41353
7.73384 -3.41362 1.41348
7.58681 -3.27803 1.41344
7.43979 -3.14245 1.41339
7.29276 -3.00687 1.41334
7.14573 -2.87129 1.4133
6.99871 -2.73571 1.41325
6.85168 -2.60013 1.4132
6.70465 -2.46455 1.41316
6.55762 -2.32896 1.41311
6.4106 -2.19338 1.41306
6.26357 -2.0578 1.41301
6.11654 -1.92222 1.41297
5.96952 -1.78664 1.41292
5.82249 -1.65106 1.41287
5.67546 -1.51548 1.41283
5.52843 -1.37989 1.41278
5.38141 -1.24431 1.41273
5.23438 -1.10873 1.41269
5.08735 -0.97315 1.41264
4.94033 -0.837569 1.41259
4.7933 -0.701988 1.41255
4.64627 -0.566406 1.4125
4.49924 -0.430825 1.41245
4.35222 -0.295243 1.4124
4.20519 -0.159662 1.41236
4.05816 -0.0240798 1.41231
3.91114 0.111502 1.41226
3.76411 0.247083 1.41222
3.61708 0.382665 1.41217
3.47005 0.518246 1.41212
3.32303 0.653828 1.41208
3.176 0.789409 1.41203
3.02897 0.924991 1.41198
2.88194 1.06057 1.41194
2.73492 1.19615 1.41189
2.58789 1.33174 1.41184
2.44086 1.46732 1.41179
2.29384 1.6029 1.41175
2.14681 1.73848 1.4117
1.99978 1.87406 1.41165
1.85275 2.00964 1.41161
1.70573 2.14522 1.41156
1.5587 2.28081 1.41151
1.41167 2.41639 1.41147
1.26464 2.55197 1.41142
1.11762 2.68755 1.41137
0.97059 2.82313 1.41133
0.823563 2.95871 1.41128
0.676535 3.0943 1.41123
0.529508 3.22988 1.41119
0.382481 3.36546 1.41114
0.235453 3.50104 1.41109
0.0884261 3.63662 1.41104
-0.0586011 3.7722 1.411
-0.205629 3.90778 1.41095
-0.352656 4.04337 1.4109
-0.499683 4.17895 1.41086
-0.64671 4.31453 1.41081
-0.793738 4.45011 1.41076
-0.940765 4.58569 1.41072
-1.08779 4.72127 1.41067
-1.23482 4.85685 1.41062
-1.38185 4.99244 1.41058
-1.52887 5.12802 1.41053
-1.6759 5.2636 1.41048
-1.82293 5.39918 1.41043
-1.96996 5.53476 1.41039
-2.11698 5.67034 1.41034
-2.26401 5.80592 1.41029
-2.41104 5.94151 1.41025
-2.55806 6.07709 1.4102
-2.70509 6.21267 1.41015
-2.85212 6.34825 1.41011
-2.99915 6.48383 1.41006
-3.14617 6.61941 1.41001
-3.2932 6.75499 1.40997
-3.44023 6.89058 1.40992
-3.58725 7.02616 1.40987
-3.73428 7.16174 1.40982
-3.88131 7.29732 1.40978
-4.02834 7.4329 1.40973
-4.17536 7.56848 1.40968
-4.32239 7.70406 1.40964
-4.46942 7.83965 1.40959
-4.61644 7.97523 1.40954
-4.76347 8.11081 1.4095
-4.9105 8.24639 1.40945
-5.05753 8.38197 1.4094
-5.20455 8.51755 1.40936
-5.35158 8.65313 1.40931
-5.49861 8.78872 1.40926
9.20212 -4.76677 -1.11147
9.0551 -4.63118 -1.1108
8.90807 -4.4956 -1.11013
8.76104 -4.36002 -1.10946
8.61401 -4.22444 -1.10879
8.46699 -4.08886 -1.10812
8.31996 -3.95328 -1.10745
8.17293 -3.8177 -1.10678
8.0259 -3.68211 -1.10611
7.87888 -3.54653 -1.10544
7.73185 -3.41095 -1.10477
7.58482 -3.27537 -1.1041
7.4378 -3.13979 -1.10343
7.29077 -3.00421 -1.10276
7.14374 -2.86863 -1.1021
6.99671 -2.73304 -1.10143
6.84969 -2.59746 -1.10076
6.70266 -2.46188 -1.10009
6.55563 -2.3263 -1.09942
6.4086 -2.19072 -1.09875
6.26158 -2.05514 -1.09808
6.11455 -1.91956 -1.09741
5.96752 -1.78397 -1.09674
5.82049 -1.64839 -1.09607
5.67347 -1.51281 -1.0954
5.52644 -1.37723 -1.09473
5.37941 -1.24165 -1.09406
5.23238 -1.10607 -1.09339
5.08536 -0.970486 -1.09272
4.93833 -0.834904 -1.09205
4.7913 -0.699323 -1.09138
4.64427 -0.563741 -1.09071
4.49725 -0.42816 -1.09004
4.35022 -0.292578 -1.08937
4.20319 -0.156997 -1.0887
4.05616 -0.021415 -1.08803
3.90914 0.114166 -1.08737
3.76211 0.249748 -1.0867
3.61508 0.38533 -1.08603
3.46805 0.520911 -1.08536
3.32103 0.656493 -1.08469
3.174 0.792074 -1.08402
3.02697 0.927656 -1.08335
2.87994 1.06324 -1.08268
2.73291 1.19882 -1.08201
2.58589 1.3344 -1.08134
2.43886 1.46998 -1.08067
2.29183 1.60556 -1.08
2.1448 1.74115 -1.07933
1.99778 1.87673 -1.07866
1.85075 2.01231 -1.07799
1.70372 2.14789 -1.07732
1.55669 2.28347 -1.07665
1.40967 2.41905 -1.07598
1.26264 2.55463 -1.07531
1.11561 2.69022 -1.07464
0.968584 2.8258 -1.07397
0.821556 2.96138 -1.07331
0.674529 3.09696 -1.07264
0.527501 3.23254 -1.07197
0.380473 3.36812 -1.0713
0.233446 3.50371 -1.07063
0.0864183 3.63929 -1.06996
-0.0606093 3.77487 -1.06929
-0.207637 3.91045 -1.06862
-0.354665 4.04603 -1.06795
-0.501692 4.18161 -1.06728
-0.64872 4.31719 -1.06661
-0.795747 4.45278 -1.06594
-0.942775 4.58836 -1.06527
-1.0898 4.72394 -1.0646
-1.23683 4.85952 -1.06393
-1.38386 4.9951 -1.06326
-1.53089 5.13068 -1.06259
-1.67791 5.26627 -1.06192
-1.82494 5.40185 -1.06125
-1.97197 5.53743 -1.06058
-2.11899 5.67301 -1.05991
-2.26602 5.80859 -1.05924
-2.41305 5.94417 -1.05858
-2.56008 6.07975 -1.05791
-2.7071 6.21534 -1.05724
-2.85413 6.35092 -1.05657
-3.00116 6.4865 -1.0559
-3.14819 6.62208 -1.05523
-3.29521 6.75766 -1.05456
-3.44224 6.89324 -1.05389
-3.58927 7.02882 -1.05322
-3.7363 7.16441 -1.05255
-3.88332 7.29999 -1.05188
-4.03035 7.43557 -1.05121
-4.17738 7.57115 -1.05054
-4.32441 7.70673 -1.04987
-4.47143 7.84231 -1.0492
-4.61846 7.97789 -1.04853
-4.76549 8.11348 -1.04786
-4.91252 8.24906 -1.04719
-5.05954 8.38464 -1.04652
-5.20657 8.52022 -1.04585
-5.3536 8.6558 -1.04518
-5.50063 8.79138 -1.04452
-458.392 422.485 -826.03
-458.391 422.485 -826.031
-458.39 422.484 -826.031
-458.39 422.483 -826.032
-458.389 422.483 -826.033
-458.388 422.482 -826.033
-458.388 422.482 -826.034
-458.387 422.481 -826.034
-458.387 422.481 -826.035
-458.386 422.48 -826.036
-458.385 422.48 -826.036
-458.385 422.479 -826.037
-458.384 422.478 -826.038
-458.384 422.478 -826.038
-458.383 422.477 -826.039
-458.382 422.477 -826.04
-458.382 422.476 -826.04
-458.381 422.476 -826.041
-458.38 422.475 -826.041
-458.38 422.474 -826.042
-458.379 422.474 -826.043
-458.379 422.473 -826.043
-458.378 422.473 -826.044
-458.377 422.472 -826.045
-458.377 422.472 -826.045
-458.376 422.471 -826.046
-458.376 422.47 -826.046
-458.375 422.47 -826.047
-458.374 422.469 -826.048
-458.374 422.469 -826.048
-458.373 422.468 -826.049
-458.372 422.468 -826.05
-458.372 422.467 -826.05
-458.371 422.467 -826.051
-458.371 422.466 -826.052
-458.37 422.465 -826.052
-458.369 422.465 -826.053
-458.369 422.464 -826.053
-458.368 422.464 -826.054
-458.367 422.463 -826.055
-458.367 422.463 -826.055
-458.366 422.462 -826.056
-458.366 422.461 -826.057
-458.365 422.461 -826.057
-458.364 422.46 -826.058
-458.364 422.46 -826.058
-458.363 422.459 -826.059
-458.363 422.459 -826.06
-458.362 422.458 -826.06
-458.361 422.457 -826.061
-458.361 422.457 -826.062
-458.36 422.456 -826.062
-458.359 422.456 -826.063
-458.359 422.455 -826.064
-458.358 422.455 -826.064
-458.358 422.454 -826.065
-458.357 422.454 -826.065
-458.356 422.453 -826.066
-458.356 422.452 -826.067
-458.355 422.452 -826.067
-458.355 422.451 -826.068
-458.354 422.451 -826.069
-458.353 422.45 -826.069
-458.353 422.45 -826.07
-458.352 422.449 -826.07
-458.351 422.448 -826.071
-458.351 422.448 -826.072
-458.35 422.447 -826.072
-458.35 422.447 -826.073
-458.349 422.446 -826.074
-458.348 422.446 -826.074
-458.348 422.445 -826.075
-458.347 422.444 -826.076
-458.346 422.444 -826.076
-458.346 422.443 -826.077
-458.345 422.443 -826.077
-458.345 422.442 -826.078
-458.344 422.442 -826.079
-458.343 422.441 -826.079
-458.343 422.441 -826.08
-458.342 422.44 -826.081
-458.342 422.439 -826.081
-458.341 422.439 -826.082
-458.34 422.438 -826.083
-458.34 422.438 -826.083
-458.339 422.437 -826.084
-458.338 422.437 -826.084
-458.338 422.436 -826.085
-458.337 422.435 -826.086
-458.337 422.435 -826.086
-458.336 422.434 -826.087
-458.335 422.434 -826.088
-458.335 422.433 -826.088
-458.334 422.433 -826.089
-458.333 422.432 -826.089
-458.333 422.431 -826.09
-458.332 422.431 -826.091
-458.332 422.43 -826.091
-458.331 422.43 -826.092
-458.33 422.429 -826.093
-458.33 422.429 -826.093
-0.0965338 3.90059 -10.0007
-0.0964331 3.90063 -9.80068
-0.0963323 3.90068 -9.60068
-0.0962316 3.90072 -9.40068
-0.0961309 3.90077 -9.20069
-0.0960301 3.90081 -9.00069
-0.0959294 3.90086 -8.80069
-0.0958287 3.9009 -8.6007
-0.0957279 3.90095 -8.4007
-0.0956272 3.90099 -8.2007
-0.0955264 3.90104 -8.00071
-0.0954257 3.90108 -7.80071
-0.095325 3.90113 -7.60071
-0.0952242 3.90117 -7.40072
-0.0951235 3.90122 -7.20072
-0.0950228 3.90126 -7.00072
-0.094922 3.90131 -6.80073
-0.0948213 3.90135 -6.60073
-0.0947206 3.9014 -6.40073
-0.0946198 3.90144 -6.20074
-0.0945191 3.90149 -6.00074
-0.0944183 3.90153 -5.80074
-0.0943176 3.90158 -5.60075
-0.0942169 3.90162 -5.40075
-0.0941161 3.90167 -5.20075
-0.0940154 3.90171 -5.00076
-0.0939147 3.90176 -4.80076
-0.0938139 3.9018 -4.60076
-0.0937132 3.90185 -4.40077
-0.0936125 3.90189 -4.20077
-0.0935117 3.90194 -4.00077
-0.093411 3.90198 -3.80078
-0.0933102 3.90203 -3.60078
-0.0932095 3.90207 -3.40078
-0.0931088 3.90212 -3.20079
-0.093008 3.90216 -3.00079
-0.0929073 3.90221 -2.80079
-0.0928066 3.90225 -2.6008
-0.0927058 3.9023 -2.4008
-0.0926051 3.90234 -2.2008
-0.0925043 3.90239 -2.00081
-0.0924036 3.90243 -1.80081
-0.0923029 3.90248 -1.60081
-0.0922021 3.90252 -1.40082
-0.0921014 3.90257 -1.20082
-0.0920007 3.90261 -1.00082
-0.0918999 3.90266 -0.800825
-0.0917992 3.9027 -0.600828
-0.0916985 3.90275 -0.400831
-0.0915977 3.90279 -0.200835
-0.091497 3.90284 -0.000837832
-0.0913962 3.90288 0.199159
-0.0912955 3.90293 0.399156
-0.0911948 3.90297 0.599153
-0.091094 3.90302 0.799149
-0.0909933 3.90306 0.999146
-0.0908926 3.90311 1.19914
-0.0907918 3.90315 1.39914
-0.0906911 3.9032 1.59914
-0.0905903 3.90324 1.79913
-0.0904896 3.90329 1.99913
-0.0903889 3.90333 2.19913
-0.0902881 3.90338 2.39912
-0.0901874 3.90342 2.59912
-0.0900867 3.90347 2.79912
-0.0899859 3.90351 2.99911
-0.0898852 3.90356 3.19911
-0.0897845 3.9036 3.39911
-0.0896837 3.90365 3.59911
-0.089583 3.90369 3.7991
-0.0894822 3.90374 3.9991
-0.0893815 3.90378 4.1991
-0.0892808 3.90383 4.39909
-0.08918 3.90387 4.59909
-0.0890793 3.90392 4.79909
-0.0889786 3.90396 4.99908
-0.0888778 3.90401 5.19908
-0.0887771 3.90405 5.39908
-0.0886763 3.9041 5.59907
-0.0885756 3.90414 5.79907
-0.0884749 3.90419 5.99907
-0.0883741 3.90423 6.19906
-0.0882734 3.90428 6.39906
-0.0881727 3.90432 6.59906
-0.0880719 3.90437 6.79905
-0.0879712 3.90441 6.99905
-0.0878704 3.90446 7.19905
-0.0877697 3.9045 7.39904
-0.087669 3.90455 7.59904
-0.0875682 3.90459 7.79904
-0.0874675 3.90464 7.99903
-0.0873668 3.90468 8.19903
-0.087266 3.90473 8.39903
-0.0871653 3.90477 8.59902
-0.0870646 3.90482 8.79902
-0.0869638 3.90486 8.99902
-0.0868631 3.90491 9.19901
-0.0867623 3.90495 9.39901
-0.0866616 3.905 9.59901
-0.0865609 3.90504 9.799
-0.0864601 3.90509 9.999
5.24261 -0.982433 -9.99038
5.24232 -0.982033 -9.79039
5.24203 -0.981634 -9.59039
5.24175 -0.981235 -9.3904
5.24146 -0.980835 -9.1904
5.24117 -0.980436 -8.9904
5.24089 -0.980036 -8.79041
5.2406 -0.979637 -8.59041
5.24031 -0.979237 -8.39042
5.24003 -0.978838 -8.19042
5.23974 -0.978438 -7.99042
5.23945 -0.978039 -7.79043
5.23917 -0.97764 -7.59043
5.23888 -0.97724 -7.39044
5.23859 -0.976841 -7.19044
5.23831 -0.976441 -6.99045
5.23802 -0.976042 -6.79045
5.23773 -0.975642 -6.59045
5.23745 -0.975243 -6.39046
5.23716 -0.974844 -6.19046
5.23687 -0.974444 -5.99047
5.23659 -0.974045 -5.79047
5.2363 -0.973645 -5.59047
5.23601 -0.973246 -5.39048
5.23573 -0.972846 -5.19048
5.23544 -0.972447 -4.99049
5.23515 -0.972048 -4.79049
5.23487 -0.971648 -4.5905
5.23458 -0.971249 -4.3905
5.23429 -0.970849 -4.1905
5.234 -0.97045 -3.99051
5.23372 -0.97005 -3.79051
5.23343 -0.969651 -3.59052
5.23314 -0.969251 -3.39052
5.23286 -0.968852 -3.19052
5.23257 -0.968453 -2.99053
5.23228 -0.968053 -2.79053
5.232 -0.967654 -2.59053
5.23171 -0.967254 -2.39054
5.23142 -0.966855 -2.19054
5.23114 -0.966455 -1.99055
5.23085 -0.966056 -1.79055
5.23056 -0.965656 -1.59055
5.23028 -0.965257 -1.39056
5.22999 -0.964858 -1.19056
5.2297 -0.964458 -0.990566
5.22942 -0.964059 -0.79057
5.22913 -0.963659 -0.590574
5.22884 -0.96326 -0.390578
5.22856 -0.96286 -0.190582
5.22827 -0.962461 0.00941394
5.22798 -0.962062 0.20941
5.2277 -0.961662 0.409406
5.22741 -0.961263 0.609402
5.22712 -0.960863 0.809398
5.22684 -0.960464 1.00939
5.22655 -0.960064 1.20939
5.22626 -0.959665 1.40939
5.22598 -0.959265 1.60938
5.22569 -0.958866 1.80938
5.2254 -0.958467 2.00937
5.22512 -0.958067 2.20937
5.22483 -0.957668 2.40937
5.22454 -0.957268 2.60936
5.22425 -0.956869 2.80936
5.22397 -0.956469 3.00935
5.22368 -0.95607 3.20935
5.22339 -0.95567 3.40935
5.22311 -0.955271 3.60934
5.22282 -0.954872 3.80934
5.22253 -0.954472 4.00934
5.22225 -0.954073 4.20933
5.22196 -0.953673 4.40933
5.22167 -0.953274 4.60932
5.22139 -0.952874 4.80932
5.2211 -0.952475 5.00932
5.22081 -0.952076 5.20931
5.22053 -0.951676 5.40931
5.22024 -0.951277 5.6093
5.21995 -0.950877 5.8093
5.21967 -0.950478 6.00929
5.21938 -0.950078 6.20929
5.21909 -0.949679 6.40929
5.21881 -0.949279 6.60928
5.21852 -0.94888 6.80928
5.21823 -0.948481 7.00927
5.21795 -0.948081 7.20927
5.21766 -0.947682 7.40927
5.21737 -0.947282 7.60926
5.21709 -0.946883 7.80926
5.2168 -0.946483 8.00925
5.21651 -0.946084 8.20925
5.21623 -0.945684 8.40925
5.21594 -0.945285 8.60924
5.21565 -0.944886 8.80924
5.21536 -0.944486 9.00923
5.21508 -0.944087 9.20923
5.21479 -0.943687 9.40922
5.2145 -0.943288 9.60922
5.21422 -0.942888 9.80922
5.21393 -0.942489 10.0092
4.86764 -0.639491 -9.98672
4.86719 -0.638942 -9.78673
4.86674 -0.638394 -9.58675
4.86629 -0.637845 -9.38676
4.86584 -0.637296 -9.18677
4.86539 -0.636748 -8.98679
4.86494 -0.636199 -8.7868
4.86449 -0.63565 -8.58682
4.86404 -0.635101 -8.38683
4.86359 -0.634553 -8.18684
4.86314 -0.634004 -7.98686
4.86269 -0.633455 -7.78687
4.86224 -0.632906 -7.58689
4.86179 -0.632358 -7.3869
4.86134 -0.631809 -7.18692
4.86089 -0.63126 -6.98693
4.86044 -0.630711 -6.78694
4.85999 -0.630163 -6.58696
4.85954 -0.629614 -6.38697
4.85909 -0.629065 -6.18699
4.85864 -0.628517 -5.987
4.85819 -0.627968 -5.78701
4.85774 -0.627419 -5.58703
4.85729 -0.62687 -5.38704
4.85684 -0.626322 -5.18706
4.85639 -0.625773 -4.98707
4.85594 -0.625224 -4.78709
4.85549 -0.624675 -4.5871
4.85504 -0.624127 -4.38711
4.85459 -0.623578 -4.18713
4.85414 -0.623029 -3.98714
4.85369 -0.622481 -3.78716
4.85324 -0.621932 -3.58717
4.85279 -0.621383 -3.38719
4.85234 -0.620834 -3.1872
4.85189 -0.620286 -2.98721
4.85144 -0.619737 -2.78723
4.85099 -0.619188 -2.58724
4.85054 -0.618639 -2.38725
4.85009 -0.618091 -2.18727
4.84964 -0.617542 -1.98728
4.84919 -0.616993 -1.7873
4.84874 -0.616444 -1.58731
4.84829 -0.615896 -1.38732
4.84784 -0.615347 -1.18734
4.84739 -0.614798 -0.987353
4.84694 -0.61425 -0.787367
4.84649 -0.613701 -0.587381
4.84604 -0.613152 -0.387395
4.84559 -0.612603 -0.187409
4.84514 -0.612055 0.012577
4.84469 -0.611506 0.212563
4.84424 -0.610957 0.412549
4.84379 -0.610408 0.612535
4.84334 -0.60986 0.812521
4.84289 -0.609311 1.01251
4.84244 -0.608762 1.21249
4.84199 -0.608213 1.41248
4.84154 -0.607665 1.61246
4.84108 -0.607116 1.81245
4.84064 -0.606567 2.01244
4.84019 -0.606019 2.21242
4.83974 -0.60547 2.41241
4.83928 -0.604921 2.61239
4.83884 -0.604372 2.81238
4.83839 -0.603824 3.01237
4.83793 -0.603275 3.21235
4.83748 -0.602726 3.41234
4.83704 -0.602177 3.61232
4.83659 -0.601629 3.81231
4.83613 -0.60108 4.0123
4.83568 -0.600531 4.21228
4.83524 -0.599983 4.41227
4.83478 -0.599434 4.61225
4.83433 -0.598885 4.81224
4.83388 -0.598336 5.01223
4.83344 -0.597788 5.21221
4.83298 -0.597239 5.4122
4.83253 -0.59669 5.61218
4.83208 -0.596141 5.81217
4.83163 -0.595593 6.01216
4.83118 -0.595044 6.21214
4.83073 -0.594495 6.41213
4.83028 -0.593946 6.61211
4.82983 -0.593398 6.8121
4.82938 -0.592849 7.01208
4.82893 -0.5923 7.21207
4.82848 -0.591752 7.41206
4.82803 -0.591203 7.61204
4.82758 -0.590654 7.81203
4.82713 -0.590105 8.01201
4.82668 -0.589557 8.212
4.82623 -0.589008 8.41198
4.82578 -0.588459 8.61197
4.82533 -0.58791 8.81196
4.82488 -0.587362 9.01194
4.82443 -0.586813 9.21193
4.82398 -0.586264 9.41191
4.82353 -0.585715 9.6119
4.82308 -0.585167 9.81188
4.82263 -0.584618 10.0119
9.27814 -4.66712 -1.11121
9.13055 -4.53214 -1.11054
8.98297 -4.39717 -1.10988
8.83539 -4.26219 -1.10921
8.68781 -4.12722 -1.10854
8.54022 -3.99224 -1.10787
8.39264 -3.85727 -1.1072
8.24505 -3.72229 -1.10654
8.09747 -3.58731 -1.10587
7.94989 -3.45234 -1.1052
7.80231 -3.31736 -1.10453
7.65472 -3.18239 -1.10386
7.50714 -3.04741 -1.10319
7.35956 -2.91243 -1.10253
7.21197 -2.77746 -1.10186
7.06439 -2.64248 -1.10119
6.91681 -2.50751 -1.10052
6.76922 -2.37253 -1.09985
6.62164 -2.23756 -1.09919
6.47406 -2.10258 -1.09852
6.32647 -1.9676 -1.09785
6.17889 -1.83263 -1.09718
6.03131 -1.69765 -1.09651
5.88372 -1.56268 -1.09585
5.73614 -1.4277 -1.09518
5.58856 -1.29272 -1.09451
5.44097 -1.15775 -1.09384
5.29339 -1.02277 -1.09317
5.14581 -0.887797 -1.09251
4.99822 -0.752822 -1.09184
4.85064 -0.617846 -1.09117
4.70306 -0.48287 -1.0905
4.55547 -0.347894 -1.08983
4.40789 -0.212918 -1.08916
4.26031 -0.0779419 -1.0885
4.11272 0.057034 -1.08783
3.96514 0.19201 -1.08716
3.81756 0.326986 -1.08649
3.66997 0.461962 -1.08582
3.52239 0.596938 -1.08516
3.37481 0.731914 -1.08449
3.22722 0.86689 -1.08382
3.07964 1.00187 -1.08315
2.93206 1.13684 -1.08248
2.78447 1.27182 -1.08182
2.63689 1.40679 -1.08115
2.48931 1.54177 -1.08048
2.34172 1.67675 -1.07981
2.19414 1.81172 -1.07914
2.04656 1.9467 -1.07848
1.89897 2.08167 -1.07781
1.75139 2.21665 -1.07714
1.60381 2.35163 -1.07647
1.45622 2.4866 -1.0758
1.30864 2.62158 -1.07513
1.16106 2.75655 -1.07447
1.01347 2.89153 -1.0738
0.865889 3.0265 -1.07313
0.718305 3.16148 -1.07246
0.570722 3.29646 -1.07179
0.423138 3.43143 -1.07113
0.275555 3.56641 -1.07046
0.127972 3.70138 -1.06979
-0.0196116 3.83636 -1.06912
-0.167195 3.97134 -1.06845
-0.314778 4.10631 -1.06779
-0.462362 4.24129 -1.06712
-0.609945 4.37626 -1.06645
-0.757529 4.51124 -1.06578
-0.905112 4.64622 -1.06511
-1.0527 4.78119 -1.06445
-1.20028 4.91617 -1.06378
-1.34786 5.05114 -1.06311
-1.49545 5.18612 -1.06244
-1.64303 5.3211 -1.06177
-1.79061 5.45607 -1.0611
-1.93819 5.59105 -1.06044
-2.08578 5.72602 -1.05977
-2.23336 5.861 -1.0591
-2.38094 5.99597 -1.05843
-2.52853 6.13095 -1.05776
-2.67611 6.26593 -1.0571
-2.82369 6.4009 -1.05643
-2.97128 6.53588 -1.05576
-3.11886 6.67085 -1.05509
-3.26644 6.80583 -1.05442
-3.41403 6.94081 -1.05376
-3.56161 7.07578 -1.05309
-3.70919 7.21076 -1.05242
-3.85678 7.34573 -1.05175
-4.00436 7.48071 -1.05108
-4.15194 7.61568 -1.05042
-4.29953 7.75066 -1.04975
-4.44711 7.88564 -1.04908
-4.59469 8.02061 -1.04841
-4.74228 8.15559 -1.04774
-4.88986 8.29056 -1.04707
-5.03744 8.42554 -1.04641
-5.18503 8.56052 -1.04574
-5.33261 8.69549 -1.04507
-5.48019 8.83047 -1.0444
-66.8864 63.973 -1182.43
-66.8857 63.9724 -1182.43
-66.8851 63.9718 -1182.43
-66.8844 63.9712 -1182.43
-66.8837 63.9706 -1182.43
-66.8831 63.9699 -1182.43
-66.8824 63.9693 -1182.43
-66.8817 63.9687 -1182.43
-66.881 63.9681 -1182.43
-66.8804 63.9675 -1182.43
-66.8797 63.9669 -1182.43
-66.879 63.9662 -1182.43
-66.8784 63.9656 -1182.43
-66.8777 63.965 -1182.43
-66.877 63.9644 -1182.43
-66.8763 63.9638 -1182.43
-66.8757 63.9631 -1182.43
-66.875 63.9625 -1182.43
-66.8743 63.9619 -1182.43
-66.8737 63.9613 -1182.43
-66.873 63.9607 -1182.43
-66.8723 63.9601 -1182.43
-66.8716 63.9594 -1182.43
-66.871 63.9588 -1182.43
-66.8703 63.9582 -1182.44
-66.8696 63.9576 -1182.44
-66.869 63.957 -1182.44
-66.8683 63.9564 -1182.44
-66.8676 63.9557 -1182.44
-66.8669 63.9551 -1182.44
-66.8663 63.9545 -1182.44
-66.8656 63.9539 -1182.44
-66.8649 63.9533 -1182.44
-66.8643 63.9526 -1182.44
-66.8636 63.952 -1182.44
-66.8629 63.9514 -1182.44
-66.8623 63.9508 -1182.44
-66.8616 63.9502 -1182.44
-66.8609 63.9496 -1182.44
-66.8602 63.9489 -1182.44
-66.8596 63.9483 -1182.44
-66.8589 63.9477 -1182.44
-66.8582 63.9471 -1182.44
-66.8576 63.9465 -1182.44
-66.8569 63.9459 -1182.44
-66.8562 63.9452 -1182.44
-66.8555 63.9446 -1182.44
-66.8549 63.944 -1182.44
-66.8542 63.9434 -1182.44
-66.8535 63.9428 -1182.44
-66.8529 63.9422 -1182.44
-66.8522 63.9415 -1182.44
-66.8515 63.9409 -1182.44
-66.8508 63.9403 -1182.44
-66.8502 63.9397 -1182.44
-66.8495 63.9391 -1182.44
-66.8488 63.9384 -1182.44
-66.8482 63.9378 -1182.44
-66.8475 63.9372 -1182.44
-66.8468 63.9366 -1182.44
-66.8461 63.936 -1182.44
-66.8455 63.9354 -1182.44
-66.8448 63.9347 -1182.44
-66.8441 63.9341 -1182.44
-66.8435 63.9335 -1182.44
-66.8428 63.9329 -1182.44
-66.8421 63.9323 -1182.44
-66.8414 63.9317 -1182.44
-66.8408 63.931 -1182.44
-66.8401 63.9304 -1182.44
-66.8394 63.9298 -1182.44
-66.8388 63.9292 -1182.44
-66.8381 63.9286 -1182.44
-66.8374 63.928 -1182.44
-66.8367 63.9273 -1182.44
-66.8361 63.9267 -1182.44
-66.8354 63.9261 -1182.44
-66.8347 63.9255 -1182.44
-66.8341 63.9249 -1182.44
-66.8334 63.9243 -1182.44
-66.8327 63.9236 -1182.44
-66.832 63.923 -1182.44
-66.8314 63.9224 -1182.44
-66.8307 63.9218 -1182.44
-66.83 63.9212 -1182.44
-66.8294 63.9205 -1182.44
-66.8287 63.9199 -1182.44
-66.828 63.9193 -1182.44
-66.8273 63.9187 -1182.44
-66.8267 63.9181 -1182.44
-66.826 63.9175 -1182.44
-66.8253 63.9168 -1182.44
-66.8247 63.9162 -1182.44
-66.824 63.9156 -1182.44
-66.8233 63.915 -1182.44
-66.8226 63.9144 -1182.44
-66.822 63.9138 -1182.44
-66.8213 63.9131 -1182.44
-66.8206 63.9125 -1182.44
-66.82 63.9119 -1182.44
-66.8193 63.9113 -1182.44
-0.0932792 3.90411 -10.0018
-0.0931281 3.9042 -9.80184
-0.092977 3.9043 -9.60184
-0.0928258 3.9044 -9.40184
-0.0926747 3.9045 -9.20184
-0.0925236 3.9046 -9.00184
-0.0923724 3.9047 -8.80184
-0.0922213 3.9048 -8.60184
-0.0920702 3.9049 -8.40184
-0.0919191 3.905 -8.20185
-0.0917679 3.9051 -8.00185
-0.0916168 3.9052 -7.80185
-0.0914657 3.9053 -7.60185
-0.0913146 3.9054 -7.40185
-0.0911634 3.9055 -7.20185
-0.0910123 3.9056 -7.00185
-0.0908612 3.9057 -6.80185
-0.09071 3.9058 -6.60185
-0.0905589 3.9059 -6.40186
-0.0904078 3.906 -6.20186
-0.0902567 3.9061 -6.00186
-0.0901055 3.9062 -5.80186
-0.0899544 3.90629 -5.60186
-0.0898033 3.90639 -5.40186
-0.0896522 3.90649 -5.20186
-0.089501 3.90659 -5.00186
-0.0893499 3.90669 -4.80186
-0.0891988 3.90679 -4.60186
-0.0890476 3.90689 -4.40187
-0.0888965 3.90699 -4.20187
-0.0887454 3.90709 -4.00187
-0.0885943 3.90719 -3.80187
-0.0884431 3.90729 -3.60187
-0.088292 3.90739 -3.40187
-0.0881409 3.90749 -3.20187
-0.0879898 3.90759 -3.00187
-0.0878386 3.90769 -2.80187
-0.0876875 3.90779 -2.60187
-0.0875364 3.90789 -2.40188
-0.0873853 3.90799 -2.20188
-0.0872341 3.90809 -2.00188
-0.087083 3.90819 -1.80188
-0.0869319 3.90829 -1.60188
-0.0867807 3.90838 -1.40188
-0.0866296 3.90848 -1.20188
-0.0864785 3.90858 -1.00188
-0.0863274 3.90868 -0.801882
-0.0861762 3.90878 -0.601883
-0.0860251 3.90888 -0.401884
-0.085874 3.90898 -0.201884
-0.0857229 3.90908 -0.00188536
-0.0855717 3.90918 0.198114
-0.0854206 3.90928 0.398113
-0.0852695 3.90938 0.598112
-0.0851183 3.90948 0.798111
-0.0849672 3.90958 0.99811
-0.0848161 3.90968 1.19811
-0.084665 3.90978 1.39811
-0.0845138 3.90988 1.59811
-0.0843627 3.90998 1.79811
-0.0842116 3.91008 1.99811
-0.0840605 3.91018 2.1981
-0.0839093 3.91028 2.3981
-0.0837582 3.91037 2.5981
-0.0836071 3.91047 2.7981
-0.0834559 3.91057 2.9981
-0.0833048 3.91067 3.1981
-0.0831537 3.91077 3.3981
-0.0830026 3.91087 3.5981
-0.0828514 3.91097 3.7981
-0.0827003 3.91107 3.9981
-0.0825492 3.91117 4.1981
-0.0823981 3.91127 4.3981
-0.0822469 3.91137 4.59809
-0.0820958 3.91147 4.79809
-0.0819447 3.91157 4.99809
-0.0817935 3.91167 5.19809
-0.0816424 3.91177 5.39809
-0.0814913 3.91187 5.59809
-0.0813402 3.91197 5.79809
-0.081189 3.91207 5.99809
-0.0810379 3.91217 6.19809
-0.0808868 3.91227 6.39809
-0.0807357 3.91237 6.59808
-0.0805845 3.91246 6.79808
-0.0804334 3.91256 6.99808
-0.0802823 3.91266 7.19808
-0.0801312 3.91276 7.39808
-0.07998 3.91286 7.59808
-0.0798289 3.91296 7.79808
-0.0796778 3.91306 7.99808
-0.0795266 3.91316 8.19808
-0.0793755 3.91326 8.39807
-0.0792244 3.91336 8.59807
-0.0790733 3.91346 8.79807
-0.0789221 3.91356 8.99807
-0.078771 3.91366 9.19807
-0.0786199 3.91376 9.39807
-0.0784688 3.91386 9.59807
-0.0783176 3.91396 9.79807
-0.0781665 3.91406 9.99807
5.23209 -0.993803 -9.99157
5.23186 -0.993348 -9.79157
5.23162 -0.992893 -9.59157
5.23139 -0.992438 -9.39157
5.23115 -0.991983 -9.19158
5.23092 -0.991528 -8.99158
5.23068 -0.991073 -8.79158
5.23045 -0.990618 -8.59158
5.23021 -0.990163 -8.39158
5.22998 -0.989708 -8.19158
5.22974 -0.989253 -7.99159
5.2295 -0.988798 -7.79159
5.22927 -0.988343 -7.59159
5.22903 -0.987888 -7.39159
5.2288 -0.987433 -7.19159
5.22856 -0.986978 -6.99159
5.22833 -0.986523 -6.7916
5.22809 -0.986068 -6.5916
5.22786 -0.985613 -6.3916
5.22762 -0.985158 -6.1916
5.22739 -0.984703 -5.9916
5.22715 -0.984248 -5.79161
5.22692 -0.983793 -5.59161
5.22668 -0.983338 -5.39161
5.22644 -0.982883 -5.19161
5.22621 -0.982428 -4.99161
5.22597 -0.981973 -4.79161
5.22574 -0.981518 -4.59162
5.2255 -0.981063 -4.39162
5.22527 -0.980608 -4.19162
5.22503 -0.980153 -3.99162
5.2248 -0.979698 -3.79162
5.22456 -0.979243 -3.59162
5.22433 -0.978788 -3.39163
5.22409 -0.978333 -3.19163
5.22386 -0.977878 -2.99163
5.22362 -0.977423 -2.79163
5.22338 -0.976968 -2.59163
5.22315 -0.976513 -2.39163
5.22291 -0.976058 -2.19164
5.22268 -0.975603 -1.99164
5.22244 -0.975148 -1.79164
5.22221 -0.974693 -1.59164
5.22197 -0.974238 -1.39164
5.22174 -0.973783 -1.19164
5.2215 -0.973328 -0.991644
5.22127 -0.972873 -0.791646
5.22103 -0.972418 -0.591647
5.2208 -0.971963 -0.391649
5.22056 -0.971508 -0.191651
5.22032 -0.971053 0.00834781
5.22009 -0.970598 0.208346
5.21985 -0.970143 0.408345
5.21962 -0.969688 0.608343
5.21938 -0.969233 0.808342
5.21915 -0.968778 1.00834
5.21891 -0.968323 1.20834
5.21868 -0.967868 1.40834
5.21844 -0.967413 1.60834
5.21821 -0.966958 1.80833
5.21797 -0.966503 2.00833
5.21774 -0.966048 2.20833
5.2175 -0.965593 2.40833
5.21727 -0.965138 2.60833
5.21703 -0.964683 2.80833
5.21679 -0.964228 3.00832
5.21656 -0.963773 3.20832
5.21632 -0.963318 3.40832
5.21609 -0.962863 3.60832
5.21585 -0.962408 3.80832
5.21562 -0.961953 4.00832
5.21538 -0.961498 4.20832
5.21515 -0.961043 4.40831
5.21491 -0.960588 4.60831
5.21468 -0.960133 4.80831
5.21444 -0.959678 5.00831
5.21421 -0.959223 5.20831
5.21397 -0.958768 5.4083
5.21373 -0.958313 5.6083
5.2135 -0.957859 5.8083
5.21326 -0.957403 6.0083
5.21303 -0.956949 6.2083
5.21279 -0.956493 6.4083
5.21256 -0.956039 6.60829
5.21232 -0.955584 6.80829
5.21209 -0.955129 7.00829
5.21185 -0.954674 7.20829
5.21162 -0.954219 7.40829
5.21138 -0.953764 7.60829
5.21115 -0.953309 7.80828
5.21091 -0.952854 8.00828
5.21067 -0.952399 8.20828
5.21044 -0.951944 8.40828
5.2102 -0.951489 8.60828
5.20997 -0.951034 8.80828
5.20973 -0.950579 9.00827
5.2095 -0.950124 9.20827
5.20926 -0.949669 9.40827
5.20903 -0.949214 9.60827
5.20879 -0.948759 9.80827
5.20856 -0.948304 10.0083
4.85826 -0.649976 -9.98741
4.85787 -0.64937 -9.78743
4.85747 -0.648765 -9.58745
4.85707 -0.648159 -9.38747
4.85667 -0.647554 -9.18749
4.85627 -0.646948 -8.98751
4.85587 -0.646342 -8.78753
4.85547 -0.645737 -8.58755
4.85507 -0.645131 -8.38758
4.85467 -0.644526 -8.1876
4.85427 -0.64392 -7.98762
4.85387 -0.643314 -7.78764
4.85348 -0.642709 -7.58766
4.85308 -0.642103 -7.38768
4.85268 -0.641498 -7.18771
4.85228 -0.640892 -6.98773
4.85188 -0.640287 -6.78775
4.85148 -0.639681 -6.58777
4.85108 -0.639075 -6.38779
4.85068 -0.63847 -6.18781
4.85028 -0.637864 -5.98783
4.84988 -0.637259 -5.78785
4.84948 -0.636653 -5.58788
4.84908 -0.636047 -5.3879
4.84869 -0.635442 -5.18792
4.84829 -0.634836 -4.98794
4.84789 -0.634231 -4.78796
4.84749 -0.633625 -4.58798
4.84709 -0.633019 -4.388
4.84669 -0.632414 -4.18803
4.84629 -0.631808 -3.98805
4.84589 -0.631203 -3.78807
4.84549 -0.630597 -3.58809
4.84509 -0.629991 -3.38811
4.84469 -0.629386 -3.18813
4.8443 -0.62878 -2.98815
4.8439 -0.628175 -2.78817
4.8435 -0.627569 -2.5882
4.8431 -0.626963 -2.38822
4.8427 -0.626358 -2.18824
4.8423 -0.625752 -1.98826
4.8419 -0.625147 -1.78828
4.8415 -0.624541 -1.5883
4.8411 -0.623935 -1.38832
4.8407 -0.62333 -1.18834
4.8403 -0.622724 -0.988365
4.8399 -0.622119 -0.788387
4.83951 -0.621513 -0.588408
4.83911 -0.620907 -0.388429
4.83871 -0.620302 -0.18845
4.83831 -0.619696 0.0115285
4.83791 -0.619091 0.211507
4.83751 -0.618485 0.411486
4.83711 -0.61788 0.611465
4.83671 -0.617274 0.811444
4.83631 -0.616668 1.01142
4.83591 -0.616063 1.2114
4.83551 -0.615457 1.41138
4.83511 -0.614852 1.61136
4.83472 -0.614246 1.81134
4.83432 -0.61364 2.01132
4.83392 -0.613035 2.2113
4.83352 -0.612429 2.41127
4.83312 -0.611824 2.61125
4.83272 -0.611218 2.81123
4.83232 -0.610612 3.01121
4.83192 -0.610007 3.21119
4.83152 -0.609401 3.41117
4.83112 -0.608796 3.61115
4.83072 -0.60819 3.81113
4.83033 -0.607584 4.0111
4.82993 -0.606979 4.21108
4.82953 -0.606373 4.41106
4.82913 -0.605768 4.61104
4.82873 -0.605162 4.81102
4.82833 -0.604556 5.011
4.82793 -0.603951 5.21098
4.82753 -0.603345 5.41096
4.82713 -0.60274 5.61093
4.82673 -0.602134 5.81091
4.82633 -0.601528 6.01089
4.82593 -0.600923 6.21087
4.82554 -0.600317 6.41085
4.82514 -0.599712 6.61083
4.82474 -0.599106 6.81081
4.82434 -0.5985 7.01078
4.82394 -0.597895 7.21076
4.82354 -0.597289 7.41074
4.82314 -0.596684 7.61072
4.82274 -0.596078 7.8107
4.82234 -0.595473 8.01068
4.82194 -0.594867 8.21066
4.82154 -0.594261 8.41063
4.82114 -0.593656 8.61061
4.82075 -0.59305 8.81059
4.82035 -0.592445 9.01057
4.81995 -0.591839 9.21055
4.81955 -0.591233 9.41053
4.81915 -0.590628 9.61051
4.81875 -0.590022 9.81048
4.81835 -0.589417 10.0105
9.26535 -4.69273 -1.11129
9.11815 -4.55734 -1.11062
8.97094 -4.42195 -1.10995
8.82374 -4.28656 -1.10928
8.67653 -4.15118 -1.10861
8.52933 -4.01579 -1.10794
8.38213 -3.8804 -1.10727
8.23492 -3.74501 -1.1066
8.08772 -3.60962 -1.10593
7.94052 -3.47423 -1.10526
7.79331 -3.33884 -1.1046
7.64611 -3.20345 -1.10393
7.4989 -3.06806 -1.10326
7.3517 -2.93267 -1.10259
7.2045 -2.79728 -1.10192
7.05729 -2.6619 -1.10125
6.91009 -2.52651 -1.10058
6.76288 -2.39112 -1.09991
6.61568 -2.25573 -1.09924
6.46848 -2.12034 -1.09857
6.32127 -1.98495 -1.09791
6.17407 -1.84956 -1.09724
6.02686 -1.71417 -1.09657
5.87966 -1.57878 -1.0959
5.73246 -1.44339 -1.09523
5.58525 -1.308 -1.09456
5.43805 -1.17262 -1.09389
5.29084 -1.03723 -1.09322
5.14364 -0.901837 -1.09255
4.99644 -0.766448 -1.09188
4.84923 -0.631059 -1.09121
4.70203 -0.49567 -1.09055
4.55482 -0.360281 -1.08988
4.40762 -0.224891 -1.08921
4.26042 -0.0895023 -1.08854
4.11321 0.045887 -1.08787
3.96601 0.181276 -1.0872
3.8188 0.316665 -1.08653
3.6716 0.452055 -1.08586
3.5244 0.587444 -1.08519
3.37719 0.722833 -1.08452
3.22999 0.858222 -1.08385
3.08278 0.993612 -1.08319
2.93558 1.129 -1.08252
2.78838 1.26439 -1.08185
2.64117 1.39978 -1.08118
2.49397 1.53517 -1.08051
2.34676 1.67056 -1.07984
2.19956 1.80595 -1.07917
2.05236 1.94134 -1.0785
1.90515 2.07673 -1.07783
1.75795 2.21211 -1.07716
1.61074 2.3475 -1.07649
1.46354 2.48289 -1.07583
1.31634 2.61828 -1.07516
1.16913 2.75367 -1.07449
1.02193 2.88906 -1.07382
0.874723 3.02445 -1.07315
0.727519 3.15984 -1.07248
0.580315 3.29523 -1.07181
0.433111 3.43062 -1.07114
0.285907 3.56601 -1.07047
0.138703 3.7014 -1.0698
-0.00850141 3.83679 -1.06913
-0.155706 3.97217 -1.06847
-0.30291 4.10756 -1.0678
-0.450114 4.24295 -1.06713
-0.597318 4.37834 -1.06646
-0.744522 4.51373 -1.06579
-0.891726 4.64912 -1.06512
-1.03893 4.78451 -1.06445
-1.18613 4.9199 -1.06378
-1.33334 5.05529 -1.06311
-1.48054 5.19068 -1.06244
-1.62775 5.32607 -1.06177
-1.77495 5.46146 -1.06111
-1.92215 5.59684 -1.06044
-2.06936 5.73223 -1.05977
-2.21656 5.86762 -1.0591
-2.36377 6.00301 -1.05843
-2.51097 6.1384 -1.05776
-2.65817 6.27379 -1.05709
-2.80538 6.40918 -1.05642
-2.95258 6.54457 -1.05575
-3.09979 6.67996 -1.05508
-3.24699 6.81535 -1.05441
-3.39419 6.95074 -1.05375
-3.5414 7.08612 -1.05308
-3.6886 7.22151 -1.05241
-3.8358 7.3569 -1.05174
-3.98301 7.49229 -1.05107
-4.13021 7.62768 -1.0504
-4.27742 7.76307 -1.04973
-4.42462 7.89846 -1.04906
-4.57182 8.03385 -1.04839
-4.71903 8.16924 -1.04772
-4.86623 8.30463 -1.04706
-5.01344 8.44002 -1.04639
-5.16064 8.57541 -1.04572
-5.30784 8.71079 -1.04505
-5.45505 8.84618 -1.04438
-459.753 423.72 -828.635
-459.754 423.721 -828.634
-459.754 423.721 -828.634
-459.755 423.722 -828.633
-459.756 423.722 -828.632
-459.756 423.723 -828.632
-459.757 423.724 -828.631
-459.757 423.724 -828.63
-459.758 423.725 -828.63
-459.759 423.725 -828.629
-459.759 423.726 -828.629
-459.76 423.726 -828.628
-459.76 423.727 -828.627
-459.761 423.728 -828.627
-459.762 423.728 -828.626
-459.762 423.729 -828.625
-459.763 423.729 -828.625
-459.764 423.73 -828.624
-459.764 423.73 -828.623
-459.765 423.731 -828.623
-459.765 423.731 -828.622
-459.766 423.732 -828.622
-459.767 423.733 -828.621
-459.767 423.733 -828.62
-459.768 423.734 -828.62
-459.768 423.734 -828.619
-459.769 423.735 -828.618
-459.77 423.735 -828.618
-459.77 423.736 -828.617
-459.771 423.737 -828.617
-459.772 423.737 -828.616
-459.772 423.738 -828.615
-459.773 423.738 -828.615
-459.773 423.739 -828.614
-459.774 423.739 -828.613
-459.775 423.74 -828.613
-459.775 423.741 -828.612
-459.776 423.741 -828.612
-459.777 423.742 -828.611
-459.777 423.742 -828.61
-459.778 423.743 -828.61
-459.778 423.743 -828.609
-459.779 423.744 -828.608
-459.78 423.744 -828.608
-459.78 423.745 -828.607
-459.781 423.746 -828.606
-459.781 423.746 -828.606
-459.782 423.747 -828.605
-459.783 423.747 -828.605
-459.783 423.748 -828.604
-459.784 423.748 -828.603
-459.785 423.749 -828.603
-459.785 423.75 -828.602
-459.786 423.75 -828.601
-459.786 423.751 -828.601
-459.787 423.751 -828.6
-459.788 423.752 -828.599
-459.788 423.752 -828.599
-459.789 423.753 -828.598
-459.789 423.754 -828.598
-459.79 423.754 -828.597
-459.791 423.755 -828.596
-459.791 423.755 -828.596
-459.792 423.756 -828.595
-459.793 423.756 -828.594
-459.793 423.757 -828.594
-459.794 423.757 -828.593
-459.794 423.758 -828.593
-459.795 423.759 -828.592
-459.796 423.759 -828.591
-459.796 423.76 -828.591
-459.797 423.76 -828.59
-459.798 423.761 -828.589
-459.798 423.761 -828.589
-459.799 423.762 -828.588
-459.799 423.763 -828.587
-459.8 423.763 -828.587
-459.801 423.764 -828.586
-459.801 423.764 -828.586
-459.802 423.765 -828.585
-459.802 423.765 -828.584
-459.803 423.766 -828.584
-459.804 423.767 -828.583
-459.804 423.767 -828.582
-459.805 423.768 -828.582
-459.806 423.768 -828.581
-459.806 423.769 -828.581
-459.807 423.769 -828.58
-459.807 423.77 -828.579
-459.808 423.771 -828.579
-459.809 423.771 -828.578
-459.809 423.772 -828.577
-459.81 423.772 -828.577
-459.811 423.773 -828.576
-459.811 423.773 -828.575
-459.812 423.774 -828.575
-459.812 423.774 -828.574
-459.813 423.775 -828.574
-459.814 423.776 -828.573
-459.814 423.776 -828.572
-459.815 423.777 -828.572
-66.8481 63.8753 -1182.44
-66.8487 63.876 -1182.44
-66.8494 63.8766 -1182.44
-66.8501 63.8772 -1182.44
-66.8507 63.8778 -1182.44
-66.8514 63.8784 -1182.44
-66.8521 63.879 -1182.44
-66.8528 63.8797 -1182.44
-66.8534 63.8803 -1182.44
-66.8541 63.8809 -1182.44
-66.8548 63.8815 -1182.44
-66.8554 63.8821 -1182.44
-66.8561 63.8828 -1182.44
-66.8568 63.8834 -1182.44
-66.8575 63.884 -1182.44
-66.8581 63.8846 -1182.44
-66.8588 63.8852 -1182.44
-66.8595 63.8858 -1182.44
-66.8601 63.8865 -1182.44
-66.8608 63.8871 -1182.44
-66.8615 63.8877 -1182.44
-66.8622 63.8883 -1182.44
-66.8628 63.8889 -1182.44
-66.8635 63.8895 -1182.44
-66.8642 63.8902 -1182.44
-66.8648 63.8908 -1182.44
-66.8655 63.8914 -1182.44
-66.8662 63.892 -1182.44
-66.8669 63.8926 -1182.44
-66.8675 63.8932 -1182.44
-66.8682 63.8939 -1182.44
-66.8689 63.8945 -1182.44
-66.8695 63.8951 -1182.44
-66.8702 63.8957 -1182.44
-66.8709 63.8963 -1182.44
-66.8715 63.8969 -1182.44
-66.8722 63.8976 -1182.44
-66.8729 63.8982 -1182.44
-66.8736 63.8988 -1182.44
-66.8742 63.8994 -1182.44
-66.8749 63.9 -1182.44
-66.8756 63.9007 -1182.44
-66.8762 63.9013 -1182.44
-66.8769 63.9019 -1182.44
-66.8776 63.9025 -1182.44
-66.8783 63.9031 -1182.44
-66.8789 63.9037 -1182.44
-66.8796 63.9044 -1182.44
-66.8803 63.905 -1182.44
-66.8809 63.9056 -1182.44
-66.8816 63.9062 -1182.44
-66.8823 63.9068 -1182.44
-66.883 63.9074 -1182.44
-66.8836 63.9081 -1182.44
-66.8843 63.9087 -1182.44
-66.885 63.9093 -1182.44
-66.8856 63.9099 -1182.44
-66.8863 63.9105 -1182.44
-66.887 63.9112 -1182.44
-66.8877 63.9118 -1182.44
-66.8883 63.9124 -1182.44
-66.889 63.913 -1182.44
-66.8897 63.9136 -1182.44
-66.8903 63.9142 -1182.44
-66.891 63.9149 -1182.44
-66.8917 63.9155 -1182.44
-66.8924 63.9161 -1182.44
-66.893 63.9167 -1182.44
-66.8937 63.9173 -1182.44
-66.8944 63.9179 -1182.44
-66.895 63.9186 -1182.44
-66.8957 63.9192 -1182.44
-66.8964 63.9198 -1182.44
-66.897 63.9204 -1182.44
-66.8977 63.921 -1182.44
-66.8984 63.9216 -1182.44
-66.8991 63.9223 -1182.44
-66.8997 63.9229 -1182.43
-66.9004 63.9235 -1182.43
-66.9011 63.9241 -1182.43
-66.9017 63.9247 -1182.43
-66.9024 63.9254 -1182.43
-66.9031 63.926 -1182.43
-66.9038 63.9266 -1182.43
-66.9044 63.9272 -1182.43
-66.9051 63.9278 -1182.43
-66.9058 63.9284 -1182.43
-66.9064 63.9291 -1182.43
-66.9071 63.9297 -1182.43
-66.9078 63.9303 -1182.43
-66.9085 63.9309 -1182.43
-66.9091 63.9315 -1182.43
-66.9098 63.9321 -1182.43
-66.9105 63.9328 -1182.43
-66.9111 63.9334 -1182.43
-66.9118 63.934 -1182.43
-66.9125 63.9346 -1182.43
-66.9132 63.9352 -1182.43
-66.9138 63.9358 -1182.43
-66.9145 63.9365 -1182.43
-66.9152 63.9371 -1182.43
-3.74274 -0.0415305 -10.0089
-3.74321 -0.0421005 -9.80892
-3.74368 -0.0426704 -9.60892
-3.74414 -0.0432404 -9.40892
-3.74461 -0.0438104 -9.20892
-3.74508 -0.0443803 -9.00893
-3.74555 -0.0449503 -8.80893
-3.74602 -0.0455202 -8.60893
-3.74648 -0.0460902 -8.40893
-3.74695 -0.0466602 -8.20893
-3.74742 -0.0472301 -8.00894
-3.74789 -0.0478001 -7.80894
-3.74836 -0.04837 -7.60894
-3.74882 -0.04894 -7.40894
-3.74929 -0.04951 -7.20895
-3.74976 -0.0500799 -7.00895
-3.75023 -0.0506499 -6.80895
-3.7507 -0.0512199 -6.60895
-3.75117 -0.0517898 -6.40895
-3.75163 -0.0523598 -6.20896
-3.7521 -0.0529297 -6.00896
-3.75257 -0.0534997 -5.80896
-3.75304 -0.0540697 -5.60896
-3.75351 -0.0546396 -5.40897
-3.75397 -0.0552096 -5.20897
-3.75444 -0.0557796 -5.00897
-3.75491 -0.0563495 -4.80897
-3.75538 -0.0569195 -4.60897
-3.75585 -0.0574894 -4.40898
-3.75631 -0.0580594 -4.20898
-3.75678 -0.0586294 -4.00898
-3.75725 -0.0591993 -3.80898
-3.75772 -0.0597693 -3.60898
-3.75819 -0.0603393 -3.40899
-3.75865 -0.0609092 -3.20899
-3.75912 -0.0614792 -3.00899
-3.75959 -0.0620491 -2.80899
-3.76006 -0.0626191 -2.60899
-3.76053 -0.0631891 -2.409
-3.761 -0.063759 -2.209
-3.76146 -0.064329 -2.009
-3.76193 -0.064899 -1.809
-3.7624 -0.0654689 -1.609
-3.76287 -0.0660389 -1.40901
-3.76334 -0.0666088 -1.20901
-3.7638 -0.0671788 -1.00901
-3.76427 -0.0677488 -0.809011
-3.76474 -0.0683187 -0.609013
-3.76521 -0.0688887 -0.409015
-3.76568 -0.0694587 -0.209017
-3.76614 -0.0700286 -0.00901933
-3.76661 -0.0705986 0.190979
-3.76708 -0.0711685 0.390977
-3.76755 -0.0717385 0.590975
-3.76802 -0.0723085 0.790973
-3.76848 -0.0728784 0.990971
-3.76895 -0.0734484 1.19097
-3.76942 -0.0740184 1.39097
-3.76989 -0.0745883 1.59097
-3.77036 -0.0751583 1.79096
-3.77083 -0.0757283 1.99096
-3.77129 -0.0762982 2.19096
-3.77176 -0.0768682 2.39096
-3.77223 -0.0774381 2.59096
-3.7727 -0.0780081 2.79095
-3.77317 -0.0785781 2.99095
-3.77363 -0.079148 3.19095
-3.7741 -0.079718 3.39095
-3.77457 -0.080288 3.59095
-3.77504 -0.0808579 3.79094
-3.77551 -0.0814279 3.99094
-3.77597 -0.0819978 4.19094
-3.77644 -0.0825678 4.39094
-3.77691 -0.0831378 4.59094
-3.77738 -0.0837077 4.79093
-3.77785 -0.0842777 4.99093
-3.77831 -0.0848477 5.19093
-3.77878 -0.0854176 5.39093
-3.77925 -0.0859876 5.59093
-3.77972 -0.0865575 5.79092
-3.78019 -0.0871275 5.99092
-3.78066 -0.0876975 6.19092
-3.78112 -0.0882674 6.39092
-3.78159 -0.0888374 6.59091
-3.78206 -0.0894074 6.79091
-3.78253 -0.0899773 6.99091
-3.783 -0.0905473 7.19091
-3.78346 -0.0911172 7.39091
-3.78393 -0.0916872 7.5909
-3.7844 -0.0922572 7.7909
-3.78487 -0.0928271 7.9909
-3.78534 -0.0933971 8.1909
-3.7858 -0.0939671 8.39089
-3.78627 -0.094537 8.59089
-3.78674 -0.095107 8.79089
-3.78721 -0.0956769 8.99089
-3.78768 -0.0962469 9.19089
-3.78814 -0.0968169 9.39088
-3.78861 -0.0973868 9.59088
-3.78908 -0.0979568 9.79088
-3.78955 -0.0985268 9.99088
1.58012 -4.9407 -9.9986
1.57927 -4.94091 -9.7986
1.57841 -4.94113 -9.59861
1.57756 -4.94134 -9.39861
1.5767 -4.94155 -9.19861
1.57585 -4.94177 -8.99862
1.57499 -4.94198 -8.79862
1.57414 -4.9422 -8.59862
1.57328 -4.94241 -8.39862
1.57243 -4.94263 -8.19863
1.57158 -4.94284 -7.99863
1.57072 -4.94305 -7.79863
1.56987 -4.94327 -7.59864
1.56901 -4.94348 -7.39864
1.56816 -4.9437 -7.19864
1.5673 -4.94391 -6.99864
1.56645 -4.94413 -6.79865
1.56559 -4.94434 -6.59865
1.56474 -4.94455 -6.39865
1.56388 -4.94477 -6.19866
1.56303 -4.94498 -5.99866
1.56217 -4.9452 -5.79866
1.56132 -4.94541 -5.59866
1.56047 -4.94563 -5.39867
1.55961 -4.94584 -5.19867
1.55876 -4.94605 -4.99867
1.5579 -4.94627 -4.79868
1.55705 -4.94648 -4.59868
1.55619 -4.9467 -4.39868
1.55534 -4.94691 -4.19868
1.55448 -4.94712 -3.99869
1.55363 -4.94734 -3.79869
1.55277 -4.94755 -3.59869
1.55192 -4.94777 -3.39869
1.55106 -4.94798 -3.1987
1.55021 -4.9482 -2.9987
1.54936 -4.94841 -2.7987
1.5485 -4.94862 -2.59871
1.54765 -4.94884 -2.39871
1.54679 -4.94905 -2.19871
1.54594 -4.94927 -1.99871
1.54508 -4.94948 -1.79872
1.54423 -4.9497 -1.59872
1.54337 -4.94991 -1.39872
1.54252 -4.95012 -1.19872
1.54166 -4.95034 -0.998726
1.54081 -4.95055 -0.798729
1.53996 -4.95077 -0.598732
1.5391 -4.95098 -0.398734
1.53825 -4.9512 -0.198737
1.53739 -4.95141 0.00126046
1.53654 -4.95162 0.201258
1.53568 -4.95184 0.401255
1.53483 -4.95205 0.601253
1.53397 -4.95227 0.80125
1.53312 -4.95248 1.00125
1.53226 -4.95269 1.20124
1.53141 -4.95291 1.40124
1.53055 -4.95312 1.60124
1.5297 -4.95334 1.80124
1.52885 -4.95355 2.00123
1.52799 -4.95377 2.20123
1.52714 -4.95398 2.40123
1.52628 -4.95419 2.60123
1.52543 -4.95441 2.80122
1.52457 -4.95462 3.00122
1.52372 -4.95484 3.20122
1.52286 -4.95505 3.40122
1.52201 -4.95527 3.60121
1.52115 -4.95548 3.80121
1.5203 -4.95569 4.00121
1.51944 -4.95591 4.20121
1.51859 -4.95612 4.4012
1.51774 -4.95634 4.6012
1.51688 -4.95655 4.8012
1.51603 -4.95677 5.00119
1.51517 -4.95698 5.20119
1.51432 -4.95719 5.40119
1.51346 -4.95741 5.60119
1.51261 -4.95762 5.80118
1.51175 -4.95784 6.00118
1.5109 -4.95805 6.20118
1.51004 -4.95826 6.40117
1.50919 -4.95848 6.60117
1.50834 -4.95869 6.80117
1.50748 -4.95891 7.00117
1.50663 -4.95912 7.20116
1.50577 -4.95934 7.40116
1.50492 -4.95955 7.60116
1.50406 -4.95976 7.80115
1.50321 -4.95998 8.00115
1.50235 -4.96019 8.20115
1.5015 -4.96041 8.40115
1.50064 -4.96062 8.60114
1.49979 -4.96084 8.80114
1.49893 -4.96105 9.00114
1.49808 -4.96126 9.20113
1.49723 -4.96148 9.40113
1.49637 -4.96169 9.60113
1.49552 -4.96191 9.80113
1.49466 -4.96212 10.0011
1.27408 -4.65904 -9.99439
1.27307 -4.65911 -9.79441
1.27207 -4.65919 -9.59444
1.27106 -4.65926 -9.39446
1.27005 -4.65934 -9.19449
1.26905 -4.65941 -8.99451
1.26804 -4.65949 -8.79453
1.26703 -4.65956 -8.59456
1.26603 -4.65963 -8.39458
1.26502 -4.65971 -8.1946
1.26401 -4.65978 -7.99463
1.26301 -4.65986 -7.79465
1.262 -4.65993 -7.59468
1.26099 -4.66 -7.3947
1.25999 -4.66008 -7.19472
1.25898 -4.66015 -6.99475
1.25797 -4.66023 -6.79477
1.25697 -4.6603 -6.59479
1.25596 -4.66037 -6.39482
