4.34911  -0.322  0.0374677
2.68019  1.36681  0.0410299
4.35101  -0.323287  1.53913
2.68209  1.36553  1.5427
4.54408  -0.378938  1.54825
4.52363  -0.323951  0.0878335
4.39528  -0.251382  1.55514
4.37482  -0.196394  0.0947199
2.71757  1.30909  1.54484
2.75379  1.3157  -0.323638
2.53475  1.47299  1.54187
2.57096  1.4796  -0.326603
2.16634  1.91517  1.53258
2.16489  1.9555  0.0750854
1.9388  1.76215  1.52857
1.93735  1.80247  0.0710791
2.03914  2.08096  1.58225
2.00349  2.10374  0.0235876
1.81695  1.92292  1.58502
1.7813  1.9457  0.0263593
1.63273  2.10363  1.53766
1.6498  2.0689  0.0626343
1.78588  2.20501  1.53704
1.80295  2.17028  0.0620189
1.76282  2.26275  1.57403
1.71836  2.28532  0.0661168
1.60263  2.15503  1.57714
1.55817  2.1776  0.0692281
1.39965  2.31526  1.54888
1.41772  2.27672  0.0558786
1.58807  2.44797  1.54774
1.60614  2.40943  0.0547336
1.32409  2.41164  1.53797
1.35444  2.35984  0.0807068
1.53033  2.55883  1.53704
1.56069  2.50703  0.0797715
1.2463  2.45957  1.53735
1.26869  2.42712  0.0787194
1.39357  2.56  1.53738
1.41597  2.52755  0.0787467
0.732415  3.12943  -1.12707
-0.230668  4.05767  0.6505
1.69966  2.24103  -0.139104
0.73658  3.16927  1.63847
-3.78686  -0.0781207  1.37921
1.52274  -4.90109  1.67585
-3.72626  -0.127313  -0.50514
1.58333  -4.95028  -0.208495
-3.75304  -0.00799799  -0.389459
-0.207961  3.74485  -0.203083
-3.79602  -0.0550654  1.37582
-0.250942  3.69779  1.56219
-0.0381348  3.88683  1.54454
-0.068679  3.8864  0.0652953
-0.0723714  3.71481  1.54529
-0.102916  3.71438  0.0660524
-0.123985  3.97834  0.25104
-0.128757  3.93248  1.50335
-0.276958  3.80547  0.244127
-0.281729  3.75961  1.49643
1.09839  2.61023  1.51795
1.121  2.5793  0.0821565
1.27372  2.72359  1.51827
1.29634  2.69266  0.0824755
2.44921  1.6262  1.52683
2.31591  1.68154  -0.323876
2.67198  1.41062  1.50434
2.53869  1.46596  -0.346368
1.17713  2.54102  1.54026
1.20853  2.50422  0.0493476
1.31335  2.63153  1.5409
1.34475  2.59474  0.0499828
0.940166  2.7523  1.49604
0.972852  2.70924  0.0766316
1.10289  2.8559  1.49665
1.13558  2.81284  0.077236
1.53717  -4.89196  -1.10497
5.20603  -1.02255  -1.03571
1.51771  -4.91891  1.43173
5.18657  -1.04949  1.50098
0.810683  2.91317  1.54941
0.84269  2.8596  0.0539652
0.961107  3.04166  1.54803
0.993114  2.98809  0.0525817
1.8473  1.87381  1.538
1.87779  1.84089  0.0486456
2.01707  1.98845  1.53894
2.04756  1.95552  0.0495861
0.888375  2.84064  1.51884
0.912899  2.79872  0.0818515
1.01595  2.91424  1.51887
1.04047  2.87232  0.0818819
1.4928  2.26053  1.50881
1.51158  2.23805  0.0798261
1.62981  2.35062  1.50919
1.6486  2.32814  0.0802098
0.74154  2.97218  1.56435
0.757562  2.9353  0.0710858
0.865156  3.06152  1.56347
0.881178  3.02464  0.070206
1.02835  2.68506  1.50722
1.05747  2.64625  0.0831342
1.18436  2.79327  1.50746
1.21348  2.75445  0.0833755
1.89198  2.08851  1.53679
1.86837  2.13883  0.057777
1.73477  1.98649  1.53583
1.71117  2.0368  0.0568148
3.38707  -2.20101  0.689552
3.51463  -2.1469  -0.982154
3.63102  -1.93612  0.716741
3.75858  -1.882  -0.954965
3.70324  -1.93315  -1.05913
3.67055  -1.88869  0.706298
3.90875  -1.70123  -1.06116
3.87606  -1.65678  0.704263
3.78624  -2.04772  0.735049
3.78049  -1.99297  -1.08747
3.68505  -1.95571  0.738132
3.6793  -1.90096  -1.08438
5.14246  -1.04316  1.37726
-0.140701  3.82948  1.51804
1.54291  -4.94538  1.35701
-3.74025  -0.0727399  1.49778