4.82918 -0.607251 3.41189
4.82875 -0.606612 3.61187
4.82832 -0.605974 3.81184
4.82789 -0.605335 4.01182
4.82747 -0.604697 4.21179
4.82704 -0.604058 4.41176
4.82661 -0.60342 4.61174
4.82618 -0.602781 4.81171
4.82575 -0.602143 5.01169
4.82532 -0.601504 5.21166
4.82489 -0.600866 5.41163
4.82446 -0.600227 5.61161
4.82404 -0.599589 5.81158
4.82361 -0.59895 6.01155
4.82318 -0.598311 6.21153
4.82275 -0.597673 6.4115
4.82232 -0.597034 6.61147
4.82189 -0.596396 6.81145
4.82146 -0.595757 7.01142
4.82103 -0.595119 7.2114
4.82061 -0.59448 7.41137
4.82018 -0.593842 7.61134
4.81975 -0.593203 7.81132
4.81932 -0.592565 8.01129
4.81889 -0.591926 8.21127
4.81846 -0.591288 8.41124
4.81803 -0.590649 8.61121
4.81761 -0.590011 8.81119
4.81718 -0.589372 9.01116
4.81675 -0.588734 9.21113
4.81632 -0.588095 9.41111
4.81589 -0.587457 9.61108
4.81546 -0.586818 9.81106
4.81503 -0.58618 10.011
9.26528 -4.69289 -1.11124
9.11808 -4.5575 -1.11058
8.97088 -4.42211 -1.10991
8.82367 -4.28672 -1.10925
8.67647 -4.15133 -1.10859
8.52927 -4.01594 -1.10792
8.38207 -3.88055 -1.10726
8.23486 -3.74516 -1.10659
8.08766 -3.60977 -1.10593
7.94046 -3.47438 -1.10526
7.79326 -3.33898 -1.1046
7.64605 -3.20359 -1.10394
7.49885 -3.0682 -1.10327
7.35165 -2.93281 -1.10261
7.20445 -2.79742 -1.10194
7.05724 -2.66203 -1.10128
6.91004 -2.52664 -1.10061
6.76284 -2.39125 -1.09995
6.61564 -2.25586 -1.09928
6.46843 -2.12047 -1.09862
6.32123 -1.98508 -1.09796
6.17403 -1.84969 -1.09729
6.02683 -1.7143 -1.09663
5.87963 -1.57891 -1.09596
5.73242 -1.44351 -1.0953
5.58522 -1.30812 -1.09463
5.43802 -1.17273 -1.09397
5.29082 -1.03734 -1.09331
5.14361 -0.901951 -1.09264
4.99641 -0.766561 -1.09198
4.84921 -0.63117 -1.09131
4.70201 -0.495779 -1.09065
4.5548 -0.360388 -1.08998
4.4076 -0.224997 -1.08932
4.2604 -0.0896063 -1.08865
4.1132 0.0457847 -1.08799
3.96599 0.181176 -1.08733
3.81879 0.316566 -1.08666
3.67159 0.451957 -1.086
3.52438 0.587348 -1.08533
3.37718 0.722739 -1.08467
3.22998 0.85813 -1.084
3.08278 0.993521 -1.08334
2.93557 1.12891 -1.08268
2.78837 1.2643 -1.08201
2.64117 1.39969 -1.08135
2.49397 1.53508 -1.08068
2.34676 1.67048 -1.08002
2.19956 1.80587 -1.07935
2.05236 1.94126 -1.07869
1.90516 2.07665 -1.07802
1.75795 2.21204 -1.07736
1.61075 2.34743 -1.0767
1.46355 2.48282 -1.07603
1.31635 2.61821 -1.07537
1.16914 2.7536 -1.0747
1.02194 2.88899 -1.07404
0.874739 3.02438 -1.07337
0.727536 3.15977 -1.07271
0.580334 3.29517 -1.07205
0.433131 3.43056 -1.07138
0.285929 3.56595 -1.07072
0.138726 3.70134 -1.07005
-0.0084765 3.83673 -1.06939
-0.155679 3.97212 -1.06872
-0.302882 4.10751 -1.06806
-0.450084 4.2429 -1.06739
-0.597287 4.37829 -1.06673
-0.744489 4.51368 -1.06607
-0.891692 4.64907 -1.0654
-1.03889 4.78447 -1.06474
-1.1861 4.91986 -1.06407
-1.3333 5.05525 -1.06341
-1.4805 5.19064 -1.06274
-1.6277 5.32603 -1.06208
-1.77491 5.46142 -1.06142
-1.92211 5.59681 -1.06075
-2.06931 5.7322 -1.06009
-2.21651 5.86759 -1.05942
-2.36372 6.00298 -1.05876
-2.51092 6.13837 -1.05809
-2.65812 6.27376 -1.05743
-2.80532 6.40915 -1.05676
-2.95253 6.54455 -1.0561
-3.09973 6.67994 -1.05544
-3.24693 6.81533 -1.05477
-3.39413 6.95072 -1.05411
-3.54134 7.08611 -1.05344
-3.68854 7.2215 -1.05278
-3.83574 7.35689 -1.05211
-3.98294 7.49228 -1.05145
-4.13015 7.62767 -1.05079
-4.27735 7.76306 -1.05012
-4.42455 7.89845 -1.04946
-4.57175 8.03384 -1.04879
-4.71896 8.16923 -1.04813
-4.86616 8.30463 -1.04746
-5.01336 8.44002 -1.0468
-5.16056 8.57541 -1.04613
-5.30777 8.7108 -1.04547
-5.45497 8.84619 -1.04481
-109.957 103.098 -1249.91
-109.957 103.097 -1249.91
-109.956 103.097 -1249.91
-109.955 103.096 -1249.91
-109.955 103.096 -1249.91
-109.954 103.095 -1249.91
-109.954 103.094 -1249.91
-109.953 103.094 -1249.91
-109.952 103.093 -1249.91
-109.952 103.093 -1249.91
-109.951 103.092 -1249.91
-109.95 103.092 -1249.91
-109.95 103.091 -1249.91
-109.949 103.09 -1249.91
-109.949 103.09 -1249.91
-109.948 103.089 -1249.91
-109.947 103.089 -1249.91
-109.947 103.088 -1249.91
-109.946 103.088 -1249.91
-109.945 103.087 -1249.91
-109.945 103.086 -1249.91
-109.944 103.086 -1249.91
-109.944 103.085 -1249.91
-109.943 103.085 -1249.91
-109.942 103.084 -1249.91
-109.942 103.083 -1249.91
-109.941 103.083 -1249.91
-109.94 103.082 -1249.91
-109.94 103.082 -1249.91
-109.939 103.081 -1249.91
-109.939 103.081 -1249.91
-109.938 103.08 -1249.91
-109.937 103.079 -1249.91
-109.937 103.079 -1249.91
-109.936 103.078 -1249.91
-109.936 103.078 -1249.91
-109.935 103.077 -1249.91
-109.934 103.077 -1249.91
-109.934 103.076 -1249.91
-109.933 103.075 -1249.91
-109.932 103.075 -1249.91
-109.932 103.074 -1249.91
-109.931 103.074 -1249.91
-109.931 103.073 -1249.91
-109.93 103.073 -1249.91
-109.929 103.072 -1249.91
-109.929 103.071 -1249.91
-109.928 103.071 -1249.91
-109.927 103.07 -1249.91
-109.927 103.07 -1249.91
-109.926 103.069 -1249.91
-109.926 103.069 -1249.91
-109.925 103.068 -1249.91
-109.924 103.067 -1249.91
-109.924 103.067 -1249.91
-109.923 103.066 -1249.91
-109.922 103.066 -1249.91
-109.922 103.065 -1249.91
-109.921 103.065 -1249.91
-109.921 103.064 -1249.91
-109.92 103.063 -1249.91
-109.919 103.063 -1249.92
-109.919 103.062 -1249.92
-109.918 103.062 -1249.92
-109.917 103.061 -1249.92
-109.917 103.061 -1249.92
-109.916 103.06 -1249.92
-109.916 103.059 -1249.92
-109.915 103.059 -1249.92
-109.914 103.058 -1249.92
-109.914 103.058 -1249.92
-109.913 103.057 -1249.92
-109.913 103.057 -1249.92
-109.912 103.056 -1249.92
-109.911 103.055 -1249.92
-109.911 103.055 -1249.92
-109.91 103.054 -1249.92
-109.909 103.054 -1249.92
-109.909 103.053 -1249.92
-109.908 103.053 -1249.92
-109.908 103.052 -1249.92
-109.907 103.051 -1249.92
-109.906 103.051 -1249.92
-109.906 103.05 -1249.92
-109.905 103.05 -1249.92
-109.904 103.049 -1249.92
-109.904 103.049 -1249.92
-109.903 103.048 -1249.92
-109.903 103.047 -1249.92
-109.902 103.047 -1249.92
-109.901 103.046 -1249.92
-109.901 103.046 -1249.92
-109.9 103.045 -1249.92
-109.899 103.045 -1249.92
-109.899 103.044 -1249.92
-109.898 103.043 -1249.92
-109.898 103.043 -1249.92
-109.897 103.042 -1249.92
-109.896 103.042 -1249.92
-109.896 103.041 -1249.92
-109.895 103.041 -1249.92
5.16746 -1.05981 -9.99328
5.16729 -1.05936 -9.79328
5.16713 -1.05891 -9.59328
5.16696 -1.05845 -9.39329
5.16679 -1.058 -9.19329
5.16663 -1.05755 -8.99329
5.16646 -1.05709 -8.79329
5.16629 -1.05664 -8.59329
5.16613 -1.05619 -8.39329
5.16596 -1.05573 -8.19329
5.16579 -1.05528 -7.9933
5.16562 -1.05483 -7.7933
5.16546 -1.05437 -7.5933
5.16529 -1.05392 -7.3933
5.16512 -1.05347 -7.1933
5.16496 -1.05301 -6.9933
5.16479 -1.05256 -6.7933
5.16462 -1.05211 -6.59331
5.16446 -1.05165 -6.39331
5.16429 -1.0512 -6.19331
5.16412 -1.05075 -5.99331
5.16396 -1.05029 -5.79331
5.16379 -1.04984 -5.59331
5.16362 -1.04939 -5.39331
5.16345 -1.04893 -5.19332
5.16329 -1.04848 -4.99332
5.16312 -1.04803 -4.79332
5.16295 -1.04757 -4.59332
5.16279 -1.04712 -4.39332
5.16262 -1.04667 -4.19332
5.16245 -1.04621 -3.99332
5.16229 -1.04576 -3.79333
5.16212 -1.04531 -3.59333
5.16195 -1.04485 -3.39333
5.16179 -1.0444 -3.19333
5.16162 -1.04395 -2.99333
5.16145 -1.04349 -2.79333
5.16128 -1.04304 -2.59333
5.16112 -1.04259 -2.39333
5.16095 -1.04213 -2.19333
5.16078 -1.04168 -1.99334
5.16062 -1.04123 -1.79334
5.16045 -1.04077 -1.59334
5.16028 -1.04032 -1.39334
5.16012 -1.03987 -1.19334
5.15995 -1.03941 -0.993342
5.15978 -1.03896 -0.793343
5.15962 -1.03851 -0.593344
5.15945 -1.03805 -0.393346
5.15928 -1.0376 -0.193347
5.15911 -1.03715 0.00665189
5.15895 -1.03669 0.206651
5.15878 -1.03624 0.406649
5.15861 -1.03579 0.606648
5.15845 -1.03533 0.806647
5.15828 -1.03488 1.00665
5.15811 -1.03443 1.20664
5.15795 -1.03397 1.40664
5.15778 -1.03352 1.60664
5.15761 -1.03307 1.80664
5.15744 -1.03261 2.00664
5.15728 -1.03216 2.20664
5.15711 -1.03171 2.40664
5.15694 -1.03125 2.60664
5.15678 -1.0308 2.80663
5.15661 -1.03035 3.00663
5.15644 -1.02989 3.20663
5.15628 -1.02944 3.40663
5.15611 -1.02899 3.60663
5.15594 -1.02853 3.80663
5.15578 -1.02808 4.00663
5.15561 -1.02763 4.20663
5.15544 -1.02717 4.40663
5.15527 -1.02672 4.60662
5.15511 -1.02627 4.80662
5.15494 -1.02581 5.00662
5.15477 -1.02536 5.20662
5.15461 -1.02491 5.40662
5.15444 -1.02445 5.60662
5.15427 -1.024 5.80662
5.15411 -1.02355 6.00661
5.15394 -1.02309 6.20661
5.15377 -1.02264 6.40661
5.15361 -1.02219 6.60661
5.15344 -1.02173 6.80661
5.15327 -1.02128 7.00661
5.1531 -1.02083 7.2066
5.15294 -1.02037 7.4066
5.15277 -1.01992 7.6066
5.1526 -1.01947 7.8066
5.15244 -1.01901 8.0066
5.15227 -1.01856 8.2066
5.1521 -1.01811 8.4066
5.15194 -1.01765 8.6066
5.15177 -1.0172 8.80659
5.1516 -1.01675 9.00659
5.15144 -1.01629 9.20659
5.15127 -1.01584 9.40659
5.1511 -1.01539 9.60659
5.15093 -1.01493 9.80659
5.15077 -1.01448 10.0066
4.79678 -0.718628 -9.98676
4.79637 -0.717959 -9.78679
4.79597 -0.71729 -9.58681
4.79557 -0.71662 -9.38684
4.79517 -0.715951 -9.18687
4.79477 -0.715282 -8.98689
4.79437 -0.714613 -8.78692
4.79397 -0.713944 -8.58695
4.79356 -0.713275 -8.38698
4.79316 -0.712606 -8.187
4.79276 -0.711937 -7.98703
4.79236 -0.711267 -7.78706
4.79196 -0.710598 -7.58709
4.79156 -0.709929 -7.38711
4.79116 -0.70926 -7.18714
4.79075 -0.708591 -6.98717
4.79035 -0.707922 -6.7872
4.78995 -0.707253 -6.58722
4.78955 -0.706584 -6.38725
4.78915 -0.705914 -6.18728
4.78875 -0.705245 -5.98731
4.78834 -0.704576 -5.78733
4.78794 -0.703907 -5.58736
4.78754 -0.703238 -5.38739
4.78714 -0.702569 -5.18742
4.78674 -0.7019 -4.98744
4.78634 -0.701231 -4.78747
4.78594 -0.700562 -4.5875
4.78553 -0.699892 -4.38753
4.78513 -0.699223 -4.18755
4.78473 -0.698554 -3.98758
4.78433 -0.697885 -3.78761
4.78393 -0.697216 -3.58763
4.78353 -0.696547 -3.38766
4.78313 -0.695878 -3.18769
4.78272 -0.695209 -2.98772
4.78232 -0.694539 -2.78774
4.78192 -0.69387 -2.58777
4.78152 -0.693201 -2.3878
4.78112 -0.692532 -2.18782
4.78072 -0.691863 -1.98785
4.78032 -0.691194 -1.78788
4.77991 -0.690525 -1.58791
4.77951 -0.689856 -1.38793
4.77911 -0.689187 -1.18796
4.77871 -0.688517 -0.987987
4.77831 -0.687848 -0.788014
4.77791 -0.687179 -0.588041
4.77751 -0.68651 -0.388069
4.7771 -0.685841 -0.188096
4.7767 -0.685172 0.011877
4.7763 -0.684503 0.21185
4.7759 -0.683834 0.411823
4.7755 -0.683164 0.611795
4.7751 -0.682495 0.811768
4.7747 -0.681826 1.01174
4.77429 -0.681157 1.21171
4.77389 -0.680488 1.41169
4.77349 -0.679819 1.61166
4.77309 -0.67915 1.81163
4.77269 -0.678481 2.01161
4.77229 -0.677812 2.21158
4.77189 -0.677142 2.41155
4.77148 -0.676473 2.61152
4.77108 -0.675804 2.8115
4.77068 -0.675135 3.01147
4.77028 -0.674466 3.21144
4.76988 -0.673797 3.41141
4.76948 -0.673128 3.61139
4.76908 -0.672459 3.81136
4.76867 -0.671789 4.01133
4.76827 -0.67112 4.21131
4.76787 -0.670451 4.41128
4.76747 -0.669782 4.61125
4.76707 -0.669113 4.81122
4.76667 -0.668444 5.0112
4.76627 -0.667775 5.21117
4.76586 -0.667106 5.41114
4.76546 -0.666436 5.61111
4.76506 -0.665767 5.81109
4.76466 -0.665098 6.01106
4.76426 -0.664429 6.21103
4.76386 -0.66376 6.411
4.76345 -0.663091 6.61098
4.76305 -0.662422 6.81095
4.76265 -0.661753 7.01092
4.76225 -0.661084 7.2109
4.76185 -0.660414 7.41087
4.76145 -0.659745 7.61084
4.76105 -0.659076 7.81081
4.76064 -0.658407 8.01079
4.76024 -0.657738 8.21076
4.75984 -0.657069 8.41073
4.75944 -0.6564 8.6107
4.75904 -0.655731 8.81068
4.75864 -0.655061 9.01065
4.75824 -0.654392 9.21062
4.75783 -0.653723 9.41059
4.75743 -0.653054 9.61057
4.75703 -0.652385 9.81054
4.75663 -0.651716 10.0105
9.20361 -4.76132 -1.1114
9.05645 -4.62588 -1.11074
8.9093 -4.49044 -1.11008
8.76214 -4.355 -1.10941
8.61499 -4.21956 -1.10875
8.46783 -4.08412 -1.10808
8.32067 -3.94867 -1.10742
8.17352 -3.81323 -1.10675
8.02636 -3.67779 -1.10609
7.87921 -3.54235 -1.10542
7.73205 -3.40691 -1.10476
7.58489 -3.27147 -1.10409
7.43774 -3.13603 -1.10343
7.29058 -3.00059 -1.10277
7.14343 -2.86514 -1.1021
6.99627 -2.7297 -1.10144
6.84912 -2.59426 -1.10077
6.70196 -2.45882 -1.10011
6.5548 -2.32338 -1.09944
6.40765 -2.18794 -1.09878
6.26049 -2.0525 -1.09811
6.11334 -1.91705 -1.09745
5.96618 -1.78161 -1.09679
5.81903 -1.64617 -1.09612
5.67187 -1.51073 -1.09546
5.52471 -1.37529 -1.09479
5.37756 -1.23985 -1.09413
5.2304 -1.10441 -1.09346
5.08325 -0.968966 -1.0928
4.93609 -0.833524 -1.09213
4.78894 -0.698083 -1.09147
4.64178 -0.562642 -1.09081
4.49462 -0.4272 -1.09014
4.34747 -0.291759 -1.08948
4.20031 -0.156317 -1.08881
4.05316 -0.0208759 -1.08815
3.906 0.114566 -1.08748
3.75884 0.250007 -1.08682
3.61169 0.385448 -1.08615
3.46453 0.52089 -1.08549
3.31738 0.656331 -1.08482
3.17022 0.791773 -1.08416
3.02306 0.927214 -1.0835
2.87591 1.06266 -1.08283
2.72875 1.1981 -1.08217
2.5816 1.33354 -1.0815
2.43444 1.46898 -1.08084
2.28728 1.60442 -1.08017
2.14013 1.73986 -1.07951
1.99297 1.8753 -1.07884
1.84582 2.01075 -1.07818
1.69866 2.14619 -1.07752
1.55151 2.28163 -1.07685
1.40435 2.41707 -1.07619
1.25719 2.55251 -1.07552
1.11004 2.68795 -1.07486
0.962882 2.82339 -1.07419
0.815726 2.95884 -1.07353
0.66857 3.09428 -1.07286
0.521414 3.22972 -1.0722
0.374258 3.36516 -1.07153
0.227102 3.5006 -1.07087
0.0799463 3.63604 -1.07021
-0.0672096 3.77148 -1.06954
-0.214366 3.90693 -1.06888
-0.361522 4.04237 -1.06821
-0.508677 4.17781 -1.06755
-0.655833 4.31325 -1.06688
-0.802989 4.44869 -1.06622
-0.950145 4.58413 -1.06555
-1.0973 4.71957 -1.06489
-1.24446 4.85502 -1.06423
-1.39161 4.99046 -1.06356
-1.53877 5.1259 -1.0629
-1.68592 5.26134 -1.06223
-1.83308 5.39678 -1.06157
-1.98024 5.53222 -1.0609
-2.12739 5.66766 -1.06024
-2.27455 5.80311 -1.05957
-2.4217 5.93855 -1.05891
-2.56886 6.07399 -1.05825
-2.71601 6.20943 -1.05758
-2.86317 6.34487 -1.05692
-3.01033 6.48031 -1.05625
-3.15748 6.61575 -1.05559
-3.30464 6.75119 -1.05492
-3.45179 6.88664 -1.05426
-3.59895 7.02208 -1.05359
-3.74611 7.15752 -1.05293
-3.89326 7.29296 -1.05226
-4.04042 7.4284 -1.0516
-4.18757 7.56384 -1.05094
-4.33473 7.69928 -1.05027
-4.48188 7.83473 -1.04961
-4.62904 7.97017 -1.04894
-4.7762 8.10561 -1.04828
-4.92335 8.24105 -1.04761
-5.07051 8.37649 -1.04695
-5.21766 8.51193 -1.04628
-5.36482 8.64737 -1.04562
-5.51197 8.78281 -1.04496
467.532 -429.075 -1233.19
467.533 -429.076 -1233.18
467.533 -429.076 -1233.18
467.534 -429.077 -1233.18
467.534 -429.077 -1233.18
467.535 -429.078 -1233.18
467.536 -429.078 -1233.18
467.536 -429.079 -1233.18
467.537 -429.079 -1233.18
467.537 -429.08 -1233.18
467.538 -429.08 -1233.18
467.538 -429.081 -1233.18
467.539 -429.081 -1233.18
467.539 -429.082 -1233.18
467.54 -429.082 -1233.18
467.54 -429.083 -1233.18
467.541 -429.083 -1233.18
467.541 -429.083 -1233.18
467.542 -429.084 -1233.18
467.542 -429.084 -1233.18
467.543 -429.085 -1233.18
467.543 -429.085 -1233.18
467.544 -429.086 -1233.18
467.544 -429.086 -1233.18
467.545 -429.087 -1233.18
467.545 -429.087 -1233.18
467.546 -429.088 -1233.18
467.546 -429.088 -1233.18
467.547 -429.089 -1233.18
467.547 -429.089 -1233.17
467.548 -429.09 -1233.17
467.548 -429.09 -1233.17
467.549 -429.091 -1233.17
467.549 -429.091 -1233.17
467.55 -429.092 -1233.17
467.55 -429.092 -1233.17
467.551 -429.092 -1233.17
467.551 -429.093 -1233.17
467.552 -429.093 -1233.17
467.552 -429.094 -1233.17
467.553 -429.094 -1233.17
467.553 -429.095 -1233.17
467.554 -429.095 -1233.17
467.554 -429.096 -1233.17
467.555 -429.096 -1233.17
467.555 -429.097 -1233.17
467.556 -429.097 -1233.17
467.557 -429.098 -1233.17
467.557 -429.098 -1233.17
467.558 -429.099 -1233.17
467.558 -429.099 -1233.17
467.559 -429.1 -1233.17
467.559 -429.1 -1233.17
467.56 -429.101 -1233.17
467.56 -429.101 -1233.17
467.561 -429.102 -1233.17
467.561 -429.102 -1233.17
467.562 -429.102 -1233.16
467.562 -429.103 -1233.16
467.563 -429.103 -1233.16
467.563 -429.104 -1233.16
467.564 -429.104 -1233.16
467.564 -429.105 -1233.16
467.565 -429.105 -1233.16
467.565 -429.106 -1233.16
467.566 -429.106 -1233.16
467.566 -429.107 -1233.16
467.567 -429.107 -1233.16
467.567 -429.108 -1233.16
467.568 -429.108 -1233.16
467.568 -429.109 -1233.16
467.569 -429.109 -1233.16
467.569 -429.11 -1233.16
467.57 -429.11 -1233.16
467.57 -429.11 -1233.16
467.571 -429.111 -1233.16
467.571 -429.111 -1233.16
467.572 -429.112 -1233.16
467.572 -429.112 -1233.16
467.573 -429.113 -1233.16
467.573 -429.113 -1233.16
467.574 -429.114 -1233.16
467.574 -429.114 -1233.16
467.575 -429.115 -1233.16
467.575 -429.115 -1233.16
467.576 -429.116 -1233.15
467.576 -429.116 -1233.15
467.577 -429.117 -1233.15
467.578 -429.117 -1233.15
467.578 -429.118 -1233.15
467.579 -429.118 -1233.15
467.579 -429.119 -1233.15
467.58 -429.119 -1233.15
467.58 -429.119 -1233.15
467.581 -429.12 -1233.15
467.581 -429.12 -1233.15
467.582 -429.121 -1233.15
467.582 -429.121 -1233.15
467.583 -429.122 -1233.15
467.583 -429.122 -1233.15
467.584 -429.123 -1233.15
5.2287 -0.993614 -9.99133
5.22844 -0.993269 -9.79133
5.22817 -0.992924 -9.59133
5.2279 -0.992579 -9.39133
5.22763 -0.992234 -9.19133
5.22737 -0.991888 -8.99133
5.2271 -0.991543 -8.79133
5.22683 -0.991198 -8.59133
5.22657 -0.990853 -8.39134
5.2263 -0.990508 -8.19134
5.22603 -0.990162 -7.99134
5.22577 -0.989817 -7.79134
5.2255 -0.989472 -7.59134
5.22523 -0.989127 -7.39134
5.22497 -0.988782 -7.19134
5.2247 -0.988436 -6.99134
5.22443 -0.988091 -6.79134
5.22416 -0.987746 -6.59134
5.2239 -0.987401 -6.39134
5.22363 -0.987055 -6.19134
5.22336 -0.98671 -5.99134
5.2231 -0.986365 -5.79134
5.22283 -0.98602 -5.59134
5.22256 -0.985675 -5.39135
5.2223 -0.985329 -5.19135
5.22203 -0.984984 -4.99135
5.22176 -0.984639 -4.79135
5.22149 -0.984294 -4.59135
5.22123 -0.983949 -4.39135
5.22096 -0.983603 -4.19135
5.22069 -0.983258 -3.99135
5.22043 -0.982913 -3.79135
5.22016 -0.982568 -3.59135
5.21989 -0.982223 -3.39135
5.21963 -0.981877 -3.19135
5.21936 -0.981532 -2.99135
5.21909 -0.981187 -2.79135
5.21883 -0.980842 -2.59135
5.21856 -0.980497 -2.39135
5.21829 -0.980151 -2.19135
5.21802 -0.979806 -1.99135
5.21776 -0.979461 -1.79135
5.21749 -0.979116 -1.59135
5.21722 -0.978771 -1.39136
5.21696 -0.978425 -1.19136
5.21669 -0.97808 -0.991356
5.21642 -0.977735 -0.791357
5.21616 -0.97739 -0.591357
5.21589 -0.977045 -0.391358
5.21562 -0.976699 -0.191358
5.21535 -0.976354 0.00864139
5.21509 -0.976009 0.208641
5.21482 -0.975664 0.40864
5.21455 -0.975318 0.60864
5.21429 -0.974973 0.808639
5.21402 -0.974628 1.00864
5.21375 -0.974283 1.20864
5.21349 -0.973938 1.40864
5.21322 -0.973592 1.60864
5.21295 -0.973247 1.80864
5.21269 -0.972902 2.00864
5.21242 -0.972557 2.20864
5.21215 -0.972212 2.40864
5.21188 -0.971866 2.60864
5.21162 -0.971521 2.80863
5.21135 -0.971176 3.00863
5.21108 -0.970831 3.20863
5.21082 -0.970486 3.40863
5.21055 -0.97014 3.60863
5.21028 -0.969795 3.80863
5.21002 -0.96945 4.00863
5.20975 -0.969105 4.20863
5.20948 -0.96876 4.40863
5.20922 -0.968414 4.60863
5.20895 -0.968069 4.80863
5.20868 -0.967724 5.00863
5.20841 -0.967379 5.20863
5.20815 -0.967034 5.40863
5.20788 -0.966688 5.60863
5.20761 -0.966343 5.80863
5.20735 -0.965998 6.00863
5.20708 -0.965653 6.20863
5.20681 -0.965308 6.40862
5.20655 -0.964962 6.60862
5.20628 -0.964617 6.80862
5.20601 -0.964272 7.00862
5.20574 -0.963927 7.20862
5.20548 -0.963582 7.40862
5.20521 -0.963236 7.60862
5.20494 -0.962891 7.80862
5.20468 -0.962546 8.00862
5.20441 -0.962201 8.20862
5.20414 -0.961855 8.40862
5.20388 -0.96151 8.60862
5.20361 -0.961165 8.80862
5.20334 -0.96082 9.00862
5.20308 -0.960475 9.20862
5.20281 -0.960129 9.40862
5.20254 -0.959784 9.60861
5.20227 -0.959439 9.80861
5.20201 -0.959094 10.0086
4.85755 -0.650423 -9.98445
4.85705 -0.649864 -9.78448
4.85655 -0.649304 -9.58452
4.85605 -0.648744 -9.38455
4.85555 -0.648185 -9.18459
4.85505 -0.647625 -8.98462
4.85455 -0.647065 -8.78466
4.85406 -0.646506 -8.5847
4.85356 -0.645946 -8.38473
4.85306 -0.645386 -8.18477
4.85256 -0.644827 -7.9848
4.85206 -0.644267 -7.78484
4.85156 -0.643707 -7.58487
4.85106 -0.643147 -7.38491
4.85056 -0.642588 -7.18494
4.85006 -0.642028 -6.98498
4.84957 -0.641468 -6.78501
4.84907 -0.640909 -6.58505
4.84857 -0.640349 -6.38508
4.84807 -0.639789 -6.18512
4.84757 -0.63923 -5.98515
4.84707 -0.63867 -5.78519
4.84657 -0.63811 -5.58522
4.84607 -0.637551 -5.38526
4.84557 -0.636991 -5.18529
4.84507 -0.636431 -4.98533
4.84458 -0.635871 -4.78536
4.84408 -0.635312 -4.5854
4.84358 -0.634752 -4.38543
4.84308 -0.634192 -4.18547
4.84258 -0.633633 -3.98551
4.84208 -0.633073 -3.78554
4.84158 -0.632513 -3.58558
4.84108 -0.631954 -3.38561
4.84058 -0.631394 -3.18565
4.84009 -0.630834 -2.98568
4.83959 -0.630275 -2.78572
4.83909 -0.629715 -2.58575
4.83859 -0.629155 -2.38579
4.83809 -0.628595 -2.18582
4.83759 -0.628036 -1.98585
4.83709 -0.627476 -1.78589
4.83659 -0.626916 -1.58592
4.83609 -0.626357 -1.38596
4.8356 -0.625797 -1.18599
4.8351 -0.625237 -0.98603
4.8346 -0.624678 -0.786065
4.8341 -0.624118 -0.5861
4.8336 -0.623558 -0.386135
4.8331 -0.622999 -0.18617
4.8326 -0.622439 0.013795
4.8321 -0.621879 0.21376
4.8316 -0.621319 0.413725
4.8311 -0.62076 0.61369
4.83061 -0.6202 0.813655
4.83011 -0.61964 1.01362
4.82961 -0.619081 1.21358
4.82911 -0.618521 1.41355
4.82861 -0.617961 1.61351
4.82811 -0.617402 1.81348
4.82761 -0.616842 2.01344
4.82711 -0.616282 2.21341
4.82661 -0.615723 2.41337
4.82612 -0.615163 2.61334
4.82562 -0.614603 2.8133
4.82512 -0.614043 3.01327
4.82462 -0.613484 3.21323
4.82412 -0.612924 3.4132
4.82362 -0.612364 3.61316
4.82312 -0.611805 3.81313
4.82262 -0.611245 4.01309
4.82212 -0.610685 4.21306
4.82163 -0.610126 4.41302
4.82113 -0.609566 4.61299
4.82063 -0.609006 4.81295
4.82013 -0.608447 5.01292
4.81963 -0.607887 5.21288
4.81913 -0.607327 5.41285
4.81863 -0.606767 5.61281
4.81813 -0.606208 5.81278
4.81763 -0.605648 6.01274
4.81713 -0.605088 6.21271
4.81664 -0.604529 6.41267
4.81614 -0.603969 6.61264
4.81564 -0.603409 6.8126
4.81514 -0.60285 7.01257
4.81464 -0.60229 7.21253
4.81414 -0.60173 7.4125
4.81364 -0.601171 7.61246
4.81314 -0.600611 7.81243
4.81264 -0.600051 8.01239
4.81215 -0.599491 8.21236
4.81165 -0.598932 8.41232
4.81115 -0.598372 8.61229
4.81065 -0.597812 8.81225
4.81015 -0.597253 9.01221
4.80965 -0.596693 9.21218
4.80915 -0.596133 9.41214
4.80865 -0.595574 9.61211
4.80815 -0.595014 9.81207
4.80765 -0.594454 10.012
9.25644 -4.7135 -1.1113
9.10959 -4.57772 -1.11064
8.96275 -4.44194 -1.10997
8.81591 -4.30616 -1.10931
8.66906 -4.17038 -1.10864
8.52222 -4.0346 -1.10798
8.37537 -3.89882 -1.10731
8.22853 -3.76304 -1.10665
8.08169 -3.62726 -1.10598
7.93484 -3.49148 -1.10532
7.788 -3.3557 -1.10465
7.64115 -3.21992 -1.10399
7.49431 -3.08414 -1.10332
7.34747 -2.94836 -1.10266
7.20062 -2.81258 -1.10199
7.05378 -2.6768 -1.10133
6.90694 -2.54102 -1.10066
6.76009 -2.40524 -1.09999
6.61325 -2.26946 -1.09933
6.4664 -2.13368 -1.09866
6.31956 -1.9979 -1.098
6.17272 -1.86212 -1.09733
6.02587 -1.72635 -1.09667
5.87903 -1.59057 -1.096
5.73218 -1.45479 -1.09534
5.58534 -1.31901 -1.09467
5.4385 -1.18323 -1.09401
5.29165 -1.04745 -1.09334
5.14481 -0.911666 -1.09268
4.99796 -0.775886 -1.09201
4.85112 -0.640106 -1.09135
4.70428 -0.504326 -1.09068
4.55743 -0.368546 -1.09002
4.41059 -0.232766 -1.08935
4.26374 -0.0969858 -1.08869
4.1169 0.0387943 -1.08802
3.97006 0.174574 -1.08735
3.82321 0.310354 -1.08669
3.67637 0.446134 -1.08602
3.52952 0.581914 -1.08536
3.38268 0.717694 -1.08469
3.23584 0.853474 -1.08403
3.08899 0.989254 -1.08336
2.94215 1.12503 -1.0827
2.7953 1.26081 -1.08203
2.64846 1.39659 -1.08137
2.50162 1.53237 -1.0807
2.35477 1.66815 -1.08004
2.20793 1.80393 -1.07937
2.06108 1.93971 -1.07871
1.91424 2.07549 -1.07804
1.7674 2.21127 -1.07738
1.62055 2.34705 -1.07671
1.47371 2.48283 -1.07604
1.32686 2.61861 -1.07538
1.18002 2.75439 -1.07471
1.03317 2.89017 -1.07405
0.886331 3.02595 -1.07338
0.739487 3.16173 -1.07272
0.592643 3.29751 -1.07205
0.445799 3.43329 -1.07139
0.298955 3.56907 -1.07072
0.152111 3.70485 -1.07006
0.00526667 3.84063 -1.06939
-0.141577 3.97642 -1.06873
-0.288422 4.1122 -1.06806
-0.435266 4.24798 -1.0674
-0.58211 4.38376 -1.06673
-0.728954 4.51954 -1.06607
-0.875798 4.65532 -1.0654
-1.02264 4.7911 -1.06474
-1.16949 4.92688 -1.06407
-1.31633 5.06266 -1.0634
-1.46317 5.19843 -1.06274
-1.61002 5.33422 -1.06207
-1.75686 5.46999 -1.06141
-1.90371 5.60577 -1.06074
-2.05055 5.74155 -1.06008
-2.19739 5.87733 -1.05941
-2.34424 6.01311 -1.05875
-2.49108 6.14889 -1.05808
-2.63793 6.28467 -1.05742
-2.78477 6.42045 -1.05675
-2.93161 6.55623 -1.05609
-3.07846 6.69201 -1.05542
-3.2253 6.82779 -1.05476
-3.37214 6.96357 -1.05409
-3.51899 7.09935 -1.05343
-3.66583 7.23513 -1.05276
-3.81268 7.37091 -1.05209
-3.95952 7.50669 -1.05143
-4.10636 7.64247 -1.05076
-4.25321 7.77825 -1.0501
-4.40005 7.91403 -1.04943
-4.5469 8.04981 -1.04877
-4.69374 8.18559 -1.0481
-4.84058 8.32137 -1.04744
-4.98743 8.45715 -1.04677
-5.13427 8.59293 -1.04611
-5.28112 8.72871 -1.04544
-5.42796 8.86449 -1.04478
-200.791 186.891 -1294.12
-200.792 186.891 -1294.12
-200.792 186.892 -1294.12
-200.793 186.892 -1294.12
-200.793 186.893 -1294.12
-200.794 186.893 -1294.12
-200.795 186.894 -1294.12
-200.795 186.894 -1294.12
-200.796 186.895 -1294.12
-200.796 186.896 -1294.12
-200.797 186.896 -1294.12
-200.798 186.897 -1294.11
-200.798 186.897 -1294.11
-200.799 186.898 -1294.11
-200.799 186.898 -1294.11
-200.8 186.899 -1294.11
-200.801 186.899 -1294.11
-200.801 186.9 -1294.11
-200.802 186.9 -1294.11
-200.802 186.901 -1294.11
-200.803 186.902 -1294.11
-200.804 186.902 -1294.11
-200.804 186.903 -1294.11
-200.805 186.903 -1294.11
-200.805 186.904 -1294.11
-200.806 186.904 -1294.11
-200.806 186.905 -1294.11
-200.807 186.905 -1294.11
-200.808 186.906 -1294.11
-200.808 186.906 -1294.11
-200.809 186.907 -1294.11
-200.809 186.908 -1294.11
-200.81 186.908 -1294.11
-200.811 186.909 -1294.11
-200.811 186.909 -1294.11
-200.812 186.91 -1294.11
-200.812 186.91 -1294.11
-200.813 186.911 -1294.11
-200.814 186.911 -1294.11
-200.814 186.912 -1294.11
-200.815 186.912 -1294.11
-200.815 186.913 -1294.11
-200.816 186.914 -1294.11
-200.817 186.914 -1294.11
-200.817 186.915 -1294.11
-200.818 186.915 -1294.11
-200.818 186.916 -1294.11
-200.819 186.916 -1294.11
-200.82 186.917 -1294.11
-200.82 186.917 -1294.11
-200.821 186.918 -1294.11
-200.821 186.918 -1294.11
-200.822 186.919 -1294.11
-200.822 186.92 -1294.11
-200.823 186.92 -1294.11
-200.824 186.921 -1294.11
-200.824 186.921 -1294.11
-200.825 186.922 -1294.11
-200.825 186.922 -1294.11
-200.826 186.923 -1294.11
-200.827 186.923 -1294.11
-200.827 186.924 -1294.11
-200.828 186.924 -1294.11
-200.828 186.925 -1294.11
-200.829 186.926 -1294.11
-200.83 186.926 -1294.11
-200.83 186.927 -1294.11
-200.831 186.927 -1294.11
-200.831 186.928 -1294.11
-200.832 186.928 -1294.1
-200.833 186.929 -1294.1
-200.833 186.929 -1294.1
-200.834 186.93 -1294.1
-200.834 186.93 -1294.1
-200.835 186.931 -1294.1
-200.836 186.932 -1294.1
-200.836 186.932 -1294.1
-200.837 186.933 -1294.1
-200.837 186.933 -1294.1
-200.838 186.934 -1294.1
-200.838 186.934 -1294.1
-200.839 186.935 -1294.1
-200.84 186.935 -1294.1
-200.84 186.936 -1294.1
-200.841 186.936 -1294.1
-200.841 186.937 -1294.1
-200.842 186.938 -1294.1
-200.843 186.938 -1294.1
-200.843 186.939 -1294.1
-200.844 186.939 -1294.1
-200.844 186.94 -1294.1
-200.845 186.94 -1294.1
-200.846 186.941 -1294.1
-200.846 186.941 -1294.1
-200.847 186.942 -1294.1
-200.847 186.942 -1294.1
-200.848 186.943 -1294.1
-200.849 186.944 -1294.1
-200.849 186.944 -1294.1
-200.85 186.945 -1294.1
-200.85 186.945 -1294.1
-108.877 102.089 -1238.35
-108.877 102.089 -1238.35
-108.878 102.09 -1238.35
-108.879 102.091 -1238.35
-108.879 102.091 -1238.35
-108.88 102.092 -1238.35
-108.88 102.092 -1238.35
-108.881 102.093 -1238.35
-108.882 102.093 -1238.34
-108.882 102.094 -1238.34
-108.883 102.095 -1238.34
-108.884 102.095 -1238.34
-108.884 102.096 -1238.34
-108.885 102.096 -1238.34
-108.885 102.097 -1238.34
-108.886 102.098 -1238.34
-108.887 102.098 -1238.34
-108.887 102.099 -1238.34
-108.888 102.099 -1238.34
-108.889 102.1 -1238.34
-108.889 102.1 -1238.34
-108.89 102.101 -1238.34
-108.89 102.102 -1238.34
-108.891 102.102 -1238.34
-108.892 102.103 -1238.34
-108.892 102.103 -1238.34
-108.893 102.104 -1238.34
-108.894 102.104 -1238.34
-108.894 102.105 -1238.34
-108.895 102.106 -1238.34
-108.895 102.106 -1238.34
-108.896 102.107 -1238.34
-108.897 102.107 -1238.34
-108.897 102.108 -1238.34
-108.898 102.108 -1238.34
-108.898 102.109 -1238.34
-108.899 102.11 -1238.34
-108.9 102.11 -1238.34
-108.9 102.111 -1238.34
-108.901 102.111 -1238.34
-108.902 102.112 -1238.34
-108.902 102.112 -1238.34
-108.903 102.113 -1238.34
-108.903 102.114 -1238.34
-108.904 102.114 -1238.34
-108.905 102.115 -1238.34
-108.905 102.115 -1238.34
-108.906 102.116 -1238.34
-108.907 102.116 -1238.34
-108.907 102.117 -1238.34
-108.908 102.118 -1238.34
-108.908 102.118 -1238.34
-108.909 102.119 -1238.34
-108.91 102.119 -1238.34
-108.91 102.12 -1238.34
-108.911 102.12 -1238.34
-108.912 102.121 -1238.34
-108.912 102.122 -1238.34
-108.913 102.122 -1238.34
-108.913 102.123 -1238.34
-108.914 102.123 -1238.34
-108.915 102.124 -1238.34
-108.915 102.124 -1238.34
-108.916 102.125 -1238.34
-108.917 102.126 -1238.34
-108.917 102.126 -1238.34
-108.918 102.127 -1238.34
-108.918 102.127 -1238.34
-108.919 102.128 -1238.34
-108.92 102.128 -1238.34
-108.92 102.129 -1238.34
-108.921 102.13 -1238.34
-108.922 102.13 -1238.34
-108.922 102.131 -1238.34
-108.923 102.131 -1238.34
-108.923 102.132 -1238.34
-108.924 102.132 -1238.34
-108.925 102.133 -1238.34
-108.925 102.134 -1238.34
-108.926 102.134 -1238.34
-108.926 102.135 -1238.34
-108.927 102.135 -1238.34
-108.928 102.136 -1238.34
-108.928 102.136 -1238.34
-108.929 102.137 -1238.34
-108.93 102.138 -1238.34
-108.93 102.138 -1238.34
-108.931 102.139 -1238.34
-108.931 102.139 -1238.34
-108.932 102.14 -1238.34
-108.933 102.14 -1238.34
-108.933 102.141 -1238.34
-108.934 102.142 -1238.34
-108.935 102.142 -1238.34
-108.935 102.143 -1238.34
-108.936 102.143 -1238.34
-108.936 102.144 -1238.34
-108.937 102.144 -1238.34
-108.938 102.145 -1238.34
-108.938 102.146 -1238.34
-108.939 102.146 -1238.34
467.612 -429.087 -1233.15
467.612 -429.086 -1233.15
467.611 -429.086 -1233.15
467.611 -429.085 -1233.15
467.61 -429.085 -1233.15
467.61 -429.084 -1233.15
467.609 -429.084 -1233.15
467.609 -429.083 -1233.15
467.608 -429.083 -1233.15
467.608 -429.083 -1233.15
467.607 -429.082 -1233.15
467.607 -429.082 -1233.15
467.606 -429.081 -1233.15
467.606 -429.081 -1233.15
467.605 -429.08 -1233.15
467.605 -429.08 -1233.15
467.604 -429.079 -1233.16
467.604 -429.079 -1233.16
467.603 -429.078 -1233.16
467.603 -429.078 -1233.16
467.602 -429.077 -1233.16
467.602 -429.077 -1233.16
467.601 -429.076 -1233.16
467.601 -429.076 -1233.16
467.6 -429.075 -1233.16
467.6 -429.075 -1233.16
467.599 -429.074 -1233.16
467.599 -429.074 -1233.16
467.598 -429.074 -1233.16
467.598 -429.073 -1233.16
467.597 -429.073 -1233.16
467.597 -429.072 -1233.16
467.596 -429.072 -1233.16
467.595 -429.071 -1233.16
467.595 -429.071 -1233.16
467.594 -429.07 -1233.16
467.594 -429.07 -1233.16
467.593 -429.069 -1233.16
467.593 -429.069 -1233.16
467.592 -429.068 -1233.16
467.592 -429.068 -1233.16
467.591 -429.067 -1233.16
467.591 -429.067 -1233.16
467.59 -429.066 -1233.16
467.59 -429.066 -1233.17
467.589 -429.066 -1233.17
467.589 -429.065 -1233.17
467.588 -429.065 -1233.17
467.588 -429.064 -1233.17
467.587 -429.064 -1233.17
467.587 -429.063 -1233.17
467.586 -429.063 -1233.17
467.586 -429.062 -1233.17
467.585 -429.062 -1233.17
467.585 -429.061 -1233.17
467.584 -429.061 -1233.17
467.584 -429.06 -1233.17
467.583 -429.06 -1233.17
467.583 -429.059 -1233.17
467.582 -429.059 -1233.17
467.582 -429.058 -1233.17
467.581 -429.058 -1233.17
467.581 -429.057 -1233.17
467.58 -429.057 -1233.17
467.58 -429.057 -1233.17
467.579 -429.056 -1233.17
467.579 -429.056 -1233.17
467.578 -429.055 -1233.17
467.578 -429.055 -1233.17
467.577 -429.054 -1233.17
467.577 -429.054 -1233.17
467.576 -429.053 -1233.17
467.576 -429.053 -1233.18
467.575 -429.052 -1233.18
467.574 -429.052 -1233.18
467.574 -429.051 -1233.18
467.573 -429.051 -1233.18
467.573 -429.05 -1233.18
467.572 -429.05 -1233.18
467.572 -429.049 -1233.18
467.571 -429.049 -1233.18
467.571 -429.048 -1233.18
467.57 -429.048 -1233.18
467.57 -429.048 -1233.18
467.569 -429.047 -1233.18
467.569 -429.047 -1233.18
467.568 -429.046 -1233.18
467.568 -429.046 -1233.18
467.567 -429.045 -1233.18
467.567 -429.045 -1233.18
467.566 -429.044 -1233.18
467.566 -429.044 -1233.18
467.565 -429.043 -1233.18
467.565 -429.043 -1233.18
467.564 -429.042 -1233.18
467.564 -429.042 -1233.18
467.563 -429.041 -1233.18
467.563 -429.041 -1233.18
467.562 -429.04 -1233.18
467.562 -429.04 -1233.18
467.561 -429.039 -1233.19
1.57313 -4.94492 -9.99836
1.57239 -4.94509 -9.79836
1.57165 -4.94526 -9.59836
1.57091 -4.94543 -9.39836
1.57017 -4.94559 -9.19837
1.56943 -4.94576 -8.99837
1.56869 -4.94593 -8.79837
1.56795 -4.94609 -8.59837
1.56721 -4.94626 -8.39837
1.56647 -4.94643 -8.19838
1.56572 -4.9466 -7.99838
1.56498 -4.94676 -7.79838
1.56424 -4.94693 -7.59838
1.5635 -4.9471 -7.39838
1.56276 -4.94727 -7.19839
1.56202 -4.94743 -6.99839
1.56128 -4.9476 -6.79839
1.56054 -4.94777 -6.59839
1.5598 -4.94793 -6.39839
1.55905 -4.9481 -6.1984
1.55831 -4.94827 -5.9984
1.55757 -4.94844 -5.7984
1.55683 -4.9486 -5.5984
1.55609 -4.94877 -5.3984
1.55535 -4.94894 -5.19841
1.55461 -4.94911 -4.99841
1.55387 -4.94927 -4.79841
1.55313 -4.94944 -4.59841
1.55239 -4.94961 -4.39841
1.55164 -4.94977 -4.19842
1.5509 -4.94994 -3.99842
1.55016 -4.95011 -3.79842
1.54942 -4.95028 -3.59842
1.54868 -4.95044 -3.39842
1.54794 -4.95061 -3.19843
1.5472 -4.95078 -2.99843
1.54646 -4.95094 -2.79843
1.54572 -4.95111 -2.59843
1.54497 -4.95128 -2.39843
1.54423 -4.95145 -2.19844
1.54349 -4.95161 -1.99844
1.54275 -4.95178 -1.79844
1.54201 -4.95195 -1.59844
1.54127 -4.95212 -1.39844
1.54053 -4.95228 -1.19844
1.53979 -4.95245 -0.998446
1.53905 -4.95262 -0.798448
1.53831 -4.95278 -0.59845
1.53756 -4.95295 -0.398452
1.53682 -4.95312 -0.198454
1.53608 -4.95329 0.00154446
1.53534 -4.95345 0.201543
1.5346 -4.95362 0.401541
1.53386 -4.95379 0.601539
1.53312 -4.95396 0.801537
1.53238 -4.95412 1.00154
1.53164 -4.95429 1.20153
1.5309 -4.95446 1.40153
1.53015 -4.95462 1.60153
1.52941 -4.95479 1.80153
1.52867 -4.95496 2.00153
1.52793 -4.95513 2.20152
1.52719 -4.95529 2.40152
1.52645 -4.95546 2.60152
1.52571 -4.95563 2.80152
1.52497 -4.95579 3.00152
1.52423 -4.95596 3.20151
1.52348 -4.95613 3.40151
1.52274 -4.9563 3.60151
1.522 -4.95646 3.80151
1.52126 -4.95663 4.00151
1.52052 -4.9568 4.20151
1.51978 -4.95697 4.4015
1.51904 -4.95713 4.6015
1.5183 -4.9573 4.8015
1.51756 -4.95747 5.0015
1.51682 -4.95763 5.2015
1.51607 -4.9578 5.40149
1.51533 -4.95797 5.60149
1.51459 -4.95814 5.80149
1.51385 -4.9583 6.00149
1.51311 -4.95847 6.20149
1.51237 -4.95864 6.40148
1.51163 -4.95881 6.60148
1.51089 -4.95897 6.80148
1.51015 -4.95914 7.00148
1.5094 -4.95931 7.20148
1.50866 -4.95947 7.40147
1.50792 -4.95964 7.60147
1.50718 -4.95981 7.80147
1.50644 -4.95998 8.00147
1.5057 -4.96014 8.20147
1.50496 -4.96031 8.40146
1.50422 -4.96048 8.60146
1.50348 -4.96064 8.80146
1.50274 -4.96081 9.00146
1.50199 -4.96098 9.20146
1.50125 -4.96115 9.40145
1.50051 -4.96131 9.60145
1.49977 -4.96148 9.80145
1.49903 -4.96165 10.0014
1.27505 -4.67032 -9.99171
1.27409 -4.67028 -9.79174
1.27313 -4.67025 -9.59177
1.27216 -4.67021 -9.3918
1.2712 -4.67017 -9.19183
1.27023 -4.67013 -8.99186
1.26927 -4.67009 -8.79189
1.26831 -4.67005 -8.59192
1.26734 -4.67002 -8.39195
1.26638 -4.66998 -8.19198
1.26542 -4.66994 -7.99201
1.26445 -4.6699 -7.79204
1.26349 -4.66986 -7.59207
1.26252 -4.66983 -7.3921
1.26156 -4.66979 -7.19213
1.2606 -4.66975 -6.99216
1.25963 -4.66971 -6.79219
1.25867 -4.66967 -6.59222
1.2577 -4.66964 -6.39225
1.25674 -4.6696 -6.19228
1.25578 -4.66956 -5.99231
1.25481 -4.66952 -5.79234
1.25385 -4.66948 -5.59237
1.25289 -4.66945 -5.3924
1.25192 -4.66941 -5.19243
1.25096 -4.66937 -4.99246
1.24999 -4.66933 -4.79249
1.24903 -4.66929 -4.59252
1.24807 -4.66925 -4.39255
1.2471 -4.66922 -4.19258
1.24614 -4.66918 -3.99261
1.24518 -4.66914 -3.79264
1.24421 -4.6691 -3.59267
1.24325 -4.66906 -3.3927
1.24228 -4.66903 -3.19273
1.24132 -4.66899 -2.99276
1.24036 -4.66895 -2.79279
1.23939 -4.66891 -2.59282
1.23843 -4.66887 -2.39285
1.23746 -4.66884 -2.19288
1.2365 -4.6688 -1.99291
1.23554 -4.66876 -1.79293
1.23457 -4.66872 -1.59296
1.23361 -4.66868 -1.39299
1.23265 -4.66864 -1.19302
1.23168 -4.66861 -0.993054
1.23072 -4.66857 -0.793083
1.22975 -4.66853 -0.593113
1.22879 -4.66849 -0.393143
1.22783 -4.66845 -0.193173
1.22686 -4.66842 0.00679767
1.2259 -4.66838 0.206768
1.22494 -4.66834 0.406738
1.22397 -4.6683 0.606708
1.22301 -4.66826 0.806679
1.22204 -4.66823 1.00665
1.22108 -4.66819 1.20662
1.22012 -4.66815 1.40659
1.21915 -4.66811 1.60656
1.21819 -4.66807 1.80653
1.21723 -4.66804 2.0065
1.21626 -4.668 2.20647
1.2153 -4.66796 2.40644
1.21433 -4.66792 2.60641
1.21337 -4.66788 2.80638
1.21241 -4.66784 3.00635
1.21144 -4.66781 3.20632
1.21048 -4.66777 3.40629
1.20951 -4.66773 3.60626
1.20855 -4.66769 3.80623
1.20759 -4.66765 4.0062
1.20662 -4.66762 4.20617
1.20566 -4.66758 4.40614
1.2047 -4.66754 4.60611
1.20373 -4.6675 4.80608
1.20277 -4.66746 5.00605
1.2018 -4.66743 5.20602
1.20084 -4.66739 5.40599
1.19988 -4.66735 5.60596
1.19891 -4.66731 5.80593
1.19795 -4.66727 6.0059
1.19699 -4.66723 6.20587
1.19602 -4.6672 6.40584
1.19506 -4.66716 6.60581
1.19409 -4.66712 6.80578
1.19313 -4.66708 7.00575
1.19217 -4.66704 7.20572
1.1912 -4.66701 7.40569
1.19024 -4.66697 7.60567
1.18928 -4.66693 7.80563
1.18831 -4.66689 8.00561
1.18735 -4.66685 8.20558
1.18638 -4.66682 8.40555
1.18542 -4.66678 8.60552
1.18446 -4.66674 8.80549
1.18349 -4.6667 9.00546
1.18253 -4.66666 9.20543
1.18156 -4.66663 9.4054
1.1806 -4.66659 9.60537
1.17964 -4.66655 9.80534
1.17867 -4.66651 10.0053
5.58799 -8.69235 1.39505
5.4409 -8.55684 1.39497
5.29382 -8.42132 1.3949
5.14673 -8.2858 1.39482
4.99964 -8.15028 1.39475
4.85255 -8.01477 1.39467
4.70546 -7.87925 1.3946
4.55837 -7.74373 1.39452
4.41129 -7.60822 1.39445
4.2642 -7.4727 1.39437
4.11711 -7.33718 1.39429
3.97002 -7.20166 1.39422
3.82293 -7.06615 1.39414
3.67584 -6.93063 1.39407
3.52876 -6.79511 1.39399
3.38167 -6.6596 1.39392
3.23458 -6.52408 1.39384
3.08749 -6.38856 1.39377
2.9404 -6.25304 1.39369
2.79331 -6.11753 1.39362
2.64622 -5.98201 1.39354
2.49914 -5.84649 1.39346
2.35205 -5.71098 1.39339
2.20496 -5.57546 1.39331
2.05787 -5.43994 1.39324
1.91078 -5.30442 1.39316
1.76369 -5.16891 1.39309
1.61661 -5.03339 1.39301
1.46952 -4.89787 1.39294
1.32243 -4.76235 1.39286
1.17534 -4.62684 1.39279
1.02825 -4.49132 1.39271
0.881164 -4.3558 1.39263
0.734075 -4.22029 1.39256
0.586987 -4.08477 1.39248
0.439898 -3.94925 1.39241
0.292809 -3.81373 1.39233
0.145721 -3.67822 1.39226
-0.00136769 -3.5427 1.39218
-0.148456 -3.40718 1.39211
-0.295545 -3.27166 1.39203
-0.442633 -3.13615 1.39195
-0.589722 -3.00063 1.39188
-0.736811 -2.86511 1.3918
-0.883899 -2.72959 1.39173
-1.03099 -2.59408 1.39165
-1.17808 -2.45856 1.39158
-1.32516 -2.32304 1.3915
-1.47225 -2.18753 1.39143
-1.61934 -2.05201 1.39135
-1.76643 -1.91649 1.39128
-1.91352 -1.78097 1.3912
-2.06061 -1.64546 1.39112
-2.2077 -1.50994 1.39105
-2.35478 -1.37442 1.39097
-2.50187 -1.2389 1.3909
-2.64896 -1.10339 1.39082
-2.79605 -0.967869 1.39075
-2.94314 -0.832352 1.39067
-3.09023 -0.696834 1.3906
-3.23732 -0.561317 1.39052
-3.3844 -0.4258 1.39045
-3.53149 -0.290282 1.39037
-3.67858 -0.154765 1.39029
-3.82567 -0.0192477 1.39022
-3.97276 0.11627 1.39014
-4.11985 0.251787 1.39007
-4.26694 0.387304 1.38999
-4.41402 0.522822 1.38992
-4.56111 0.658339 1.38984
-4.7082 0.793857 1.38977
-4.85529 0.929374 1.38969
-5.00238 1.06489 1.38962
-5.14947 1.20041 1.38954
-5.29656 1.33593 1.38946
-5.44364 1.47144 1.38939
-5.59073 1.60696 1.38931
-5.73782 1.74248 1.38924
-5.88491 1.87799 1.38916
-6.032 2.01351 1.38909
-6.17909 2.14903 1.38901
-6.32617 2.28455 1.38894
-6.47326 2.42006 1.38886
-6.62035 2.55558 1.38879
-6.76744 2.6911 1.38871
-6.91453 2.82661 1.38863
-7.06162 2.96213 1.38856
-7.2087 3.09765 1.38848
-7.35579 3.23317 1.38841
-7.50288 3.36868 1.38833
-7.64997 3.5042 1.38826
-7.79706 3.63972 1.38818
-7.94415 3.77524 1.38811
-8.09124 3.91075 1.38803
-8.23832 4.04627 1.38795
-8.38541 4.18179 1.38788
-8.5325 4.3173 1.3878
-8.67959 4.45282 1.38773
-8.82668 4.58834 1.38765
-8.97377 4.72386 1.38758
-9.12085 4.85937 1.3875
5.59102 -8.68446 -1.12052
5.44393 -8.54894 -1.11986
5.29685 -8.41343 -1.11919
5.14976 -8.27791 -1.11853
5.00267 -8.1424 -1.11786
4.85558 -8.00688 -1.1172
4.70849 -7.87137 -1.11653
4.5614 -7.73585 -1.11587
4.41431 -7.60034 -1.1152
4.26722 -7.46482 -1.11454
4.12013 -7.32931 -1.11387
3.97304 -7.19379 -1.11321
3.82596 -7.05828 -1.11255
3.67887 -6.92277 -1.11188
3.53178 -6.78725 -1.11122
3.38469 -6.65174 -1.11055
3.2376 -6.51622 -1.10989
3.09051 -6.38071 -1.10922
2.94342 -6.24519 -1.10856
2.79633 -6.10968 -1.10789
2.64924 -5.97416 -1.10723
2.50215 -5.83865 -1.10656
2.35507 -5.70313 -1.1059
2.20798 -5.56762 -1.10523
2.06089 -5.4321 -1.10457
1.9138 -5.29659 -1.1039
1.76671 -5.16108 -1.10324
1.61962 -5.02556 -1.10258
1.47253 -4.89005 -1.10191
1.32544 -4.75453 -1.10125
1.17835 -4.61902 -1.10058
1.03126 -4.4835 -1.09992
0.884175 -4.34799 -1.09925
0.737086 -4.21247 -1.09859
0.589996 -4.07696 -1.09792
0.442907 -3.94144 -1.09726
0.295818 -3.80593 -1.09659
0.148729 -3.67041 -1.09593
0.00163972 -3.5349 -1.09526
-0.14545 -3.39938 -1.0946
-0.292539 -3.26387 -1.09393
-0.439628 -3.12835 -1.09327
-0.586717 -2.99284 -1.09261
-0.733806 -2.85732 -1.09194
-0.880896 -2.72181 -1.09128
-1.02798 -2.58629 -1.09061
-1.17507 -2.45078 -1.08995
-1.32216 -2.31526 -1.08928
-1.46925 -2.17975 -1.08862
-1.61634 -2.04424 -1.08795
-1.76343 -1.90872 -1.08729
-1.91052 -1.77321 -1.08662
-2.05761 -1.63769 -1.08596
-2.2047 -1.50218 -1.08529
-2.35179 -1.36666 -1.08463
-2.49888 -1.23115 -1.08396
-2.64597 -1.09563 -1.0833
-2.79305 -0.960117 -1.08264
-2.94014 -0.824602 -1.08197
-3.08723 -0.689087 -1.08131
-3.23432 -0.553573 -1.08064
-3.38141 -0.418058 -1.07998
-3.5285 -0.282543 -1.07931
-3.67559 -0.147028 -1.07865
-3.82268 -0.0115135 -1.07798
-3.96977 0.124001 -1.07732
-4.11686 0.259516 -1.07665
-4.26395 0.395031 -1.07599
-4.41104 0.530546 -1.07532
-4.55813 0.666061 -1.07466
-4.70521 0.801575 -1.07399
-4.8523 0.93709 -1.07333
-4.99939 1.0726 -1.07267
-5.14648 1.20812 -1.072
-5.29357 1.34363 -1.07134
-5.44066 1.47915 -1.07067
-5.58775 1.61466 -1.07001
-5.73484 1.75018 -1.06934
-5.88193 1.88569 -1.06868
-6.02902 2.02121 -1.06801
-6.17611 2.15672 -1.06735
-6.32319 2.29224 -1.06668
-6.47028 2.42775 -1.06602
-6.61737 2.56327 -1.06535
-6.76446 2.69878 -1.06469
-6.91155 2.83429 -1.06402
-7.05864 2.96981 -1.06336
-7.20573 3.10532 -1.0627
-7.35282 3.24084 -1.06203
-7.49991 3.37635 -1.06137
-7.647 3.51187 -1.0607
-7.79408 3.64738 -1.06004
-7.94117 3.7829 -1.05937
-8.08826 3.91841 -1.05871
-8.23535 4.05393 -1.05804
-8.38244 4.18944 -1.05738
-8.52953 4.32496 -1.05671
-8.67662 4.46047 -1.05605
-8.82371 4.59599 -1.05538
-8.9708 4.7315 -1.05472
-9.11789 4.86701 -1.05405
5.2105 -0.949917 10.0071
5.2107 -0.95034 9.80707
5.21089 -0.950763 9.60707
5.21108 -0.951187 9.40707
5.21128 -0.95161 9.20707
5.21147 -0.952033 9.00708
5.21167 -0.952457 8.80708
5.21186 -0.95288 8.60708
5.21206 -0.953303 8.40708
5.21225 -0.953727 8.20708
5.21245 -0.95415 8.00708
5.21264 -0.954573 7.80708
5.21284 -0.954997 7.60709
5.21303 -0.95542 7.40709
5.21323 -0.955843 7.20709
5.21342 -0.956266 7.00709
5.21362 -0.95669 6.80709
5.21381 -0.957113 6.60709
5.214 -0.957536 6.4071
5.2142 -0.95796 6.2071
5.21439 -0.958383 6.0071
5.21459 -0.958806 5.8071
5.21478 -0.95923 5.6071
5.21498 -0.959653 5.4071
5.21517 -0.960076 5.20711
5.21537 -0.9605 5.00711
5.21556 -0.960923 4.80711
5.21576 -0.961346 4.60711
5.21595 -0.961769 4.40711
5.21615 -0.962193 4.20711
5.21634 -0.962616 4.00711
5.21654 -0.963039 3.80712
5.21673 -0.963463 3.60712
5.21693 -0.963886 3.40712
5.21712 -0.964309 3.20712
5.21731 -0.964733 3.00712
5.21751 -0.965156 2.80712
5.2177 -0.965579 2.60712
5.2179 -0.966002 2.40713
5.21809 -0.966426 2.20713
5.21829 -0.966849 2.00713
5.21848 -0.967272 1.80713
5.21868 -0.967696 1.60713
5.21887 -0.968119 1.40713
5.21907 -0.968542 1.20713
5.21926 -0.968966 1.00714
5.21946 -0.969389 0.807136
5.21965 -0.969812 0.607138
5.21985 -0.970236 0.407139
5.22004 -0.970659 0.207141
5.22024 -0.971082 0.00714212
5.22043 -0.971505 -0.192856
5.22062 -0.971929 -0.392855
5.22082 -0.972352 -0.592854
5.22101 -0.972775 -0.792852
5.22121 -0.973199 -0.992851
5.2214 -0.973622 -1.19285
5.2216 -0.974045 -1.39285
5.22179 -0.974469 -1.59285
5.22199 -0.974892 -1.79285
5.22218 -0.975315 -1.99284
5.22238 -0.975739 -2.19284
5.22257 -0.976162 -2.39284
5.22277 -0.976585 -2.59284
5.22296 -0.977008 -2.79284
5.22316 -0.977432 -2.99284
5.22335 -0.977855 -3.19284
5.22355 -0.978278 -3.39283
5.22374 -0.978702 -3.59283
5.22393 -0.979125 -3.79283
5.22413 -0.979548 -3.99283
5.22432 -0.979972 -4.19283
5.22452 -0.980395 -4.39283
5.22471 -0.980818 -4.59283
5.22491 -0.981241 -4.79282
5.2251 -0.981665 -4.99282
5.2253 -0.982088 -5.19282
5.22549 -0.982511 -5.39282
5.22569 -0.982935 -5.59282
5.22588 -0.983358 -5.79282
5.22608 -0.983781 -5.99281
5.22627 -0.984205 -6.19281
5.22647 -0.984628 -6.39281
5.22666 -0.985051 -6.59281
5.22685 -0.985475 -6.79281
5.22705 -0.985898 -6.99281
5.22724 -0.986321 -7.1928
5.22744 -0.986744 -7.3928
5.22763 -0.987168 -7.5928
5.22783 -0.987591 -7.7928
5.22802 -0.988014 -7.9928
5.22822 -0.988438 -8.1928
5.22841 -0.988861 -8.3928
5.22861 -0.989284 -8.59279
5.2288 -0.989708 -8.79279
5.229 -0.990131 -8.99279
5.22919 -0.990554 -9.19279
5.22939 -0.990978 -9.39279
5.22958 -0.991401 -9.59279
5.22978 -0.991824 -9.79278
5.22997 -0.992247 -9.99278
5.15077 -1.01448 10.0066
5.15094 -1.01493 9.8066
5.1511 -1.01539 9.6066
5.15127 -1.01584 9.4066
5.15144 -1.01629 9.2066
5.1516 -1.01675 9.0066
5.15177 -1.0172 8.8066
5.15194 -1.01765 8.6066
5.1521 -1.01811 8.40661
5.15227 -1.01856 8.20661
5.15244 -1.01901 8.00661
5.1526 -1.01947 7.80661
5.15277 -1.01992 7.60661
5.15294 -1.02037 7.40661
5.15311 -1.02083 7.20661
5.15327 -1.02128 7.00662
5.15344 -1.02173 6.80662
5.15361 -1.02219 6.60662
5.15377 -1.02264 6.40662
5.15394 -1.02309 6.20662
5.15411 -1.02355 6.00662
5.15427 -1.024 5.80663
5.15444 -1.02445 5.60663
5.15461 -1.02491 5.40663
5.15477 -1.02536 5.20663
5.15494 -1.02581 5.00663
5.15511 -1.02627 4.80663
5.15528 -1.02672 4.60663
5.15544 -1.02717 4.40664
5.15561 -1.02763 4.20664
5.15578 -1.02808 4.00664
5.15594 -1.02853 3.80664
5.15611 -1.02899 3.60664
5.15628 -1.02944 3.40664
5.15644 -1.02989 3.20664
5.15661 -1.03035 3.00664
5.15678 -1.0308 2.80664
5.15694 -1.03125 2.60665
5.15711 -1.03171 2.40665
5.15728 -1.03216 2.20665
5.15745 -1.03261 2.00665
5.15761 -1.03307 1.80665
5.15778 -1.03352 1.60665
5.15795 -1.03397 1.40665
5.15811 -1.03443 1.20665
5.15828 -1.03488 1.00666
5.15845 -1.03533 0.806657
5.15861 -1.03579 0.606658
5.15878 -1.03624 0.406659
5.15895 -1.03669 0.206661
5.15911 -1.03715 0.00666197
5.15928 -1.0376 -0.193337
5.15945 -1.03805 -0.393336
5.15962 -1.03851 -0.593334
5.15978 -1.03896 -0.793333
5.15995 -1.03941 -0.993332
5.16012 -1.03987 -1.19333
5.16028 -1.04032 -1.39333
5.16045 -1.04077 -1.59333
5.16062 -1.04123 -1.79333
5.16078 -1.04168 -1.99333
5.16095 -1.04213 -2.19332
5.16112 -1.04259 -2.39332
5.16128 -1.04304 -2.59332
5.16145 -1.04349 -2.79332
5.16162 -1.04395 -2.99332
5.16179 -1.0444 -3.19332
5.16195 -1.04485 -3.39332
5.16212 -1.04531 -3.59332
5.16229 -1.04576 -3.79331
5.16245 -1.04621 -3.99331
5.16262 -1.04667 -4.19331
5.16279 -1.04712 -4.39331
5.16295 -1.04757 -4.59331
5.16312 -1.04803 -4.79331
5.16329 -1.04848 -4.99331
5.16346 -1.04893 -5.19331
5.16362 -1.04939 -5.3933
5.16379 -1.04984 -5.5933
5.16396 -1.05029 -5.7933
5.16412 -1.05075 -5.9933
5.16429 -1.0512 -6.1933
5.16446 -1.05165 -6.3933
5.16462 -1.05211 -6.5933
5.16479 -1.05256 -6.79329
5.16496 -1.05301 -6.99329
5.16512 -1.05347 -7.19329
5.16529 -1.05392 -7.39329
5.16546 -1.05437 -7.59329
5.16563 -1.05483 -7.79329
5.16579 -1.05528 -7.99329
5.16596 -1.05573 -8.19328
5.16613 -1.05619 -8.39328
5.16629 -1.05664 -8.59328
5.16646 -1.05709 -8.79328
5.16663 -1.05755 -8.99328
5.16679 -1.058 -9.19328
5.16696 -1.05845 -9.39328
5.16713 -1.05891 -9.59328
5.16729 -1.05936 -9.79327
5.16746 -1.05981 -9.99327
5.20201 -0.959094 10.0086
5.20227 -0.959439 9.80862
5.20254 -0.959785 9.60862
5.20281 -0.96013 9.40862
5.20307 -0.960475 9.20862
5.20334 -0.96082 9.00863
5.20361 -0.961165 8.80863
5.20388 -0.961511 8.60863
5.20414 -0.961856 8.40863
5.20441 -0.962201 8.20863
