4.04533 -2.21421 -6.80569
4.04534 -2.2136 -7.00566
4.04535 -2.21299 -7.20563
4.04536 -2.21238 -7.4056
4.04537 -2.21177 -7.60558
4.04538 -2.21116 -7.80555
4.04538 -2.21055 -8.00552
4.04539 -2.20994 -8.20549
4.0454 -2.20933 -8.40547
4.04541 -2.20872 -8.60544
4.04542 -2.20811 -8.80541
4.04543 -2.2075 -9.00538
4.04544 -2.20689 -9.20535
4.04545 -2.20628 -9.40533
4.04545 -2.20567 -9.6053
4.04546 -2.20507 -9.80527
4.04547 -2.20446 -10.0052
-12.2452 -19.8264 -7.35324
-12.246 -19.8273 -7.34955
-12.2468 -19.8281 -7.34586
-12.2476 -19.829 -7.34217
-12.2483 -19.8298 -7.33848
-12.2491 -19.8307 -7.33479
-12.2499 -19.8315 -7.3311
-12.2507 -19.8324 -7.32741
-12.2515 -19.8333 -7.32372
-12.2522 -19.8341 -7.32003
-12.253 -19.835 -7.31634
-12.2538 -19.8358 -7.31265
-12.2546 -19.8367 -7.30896
-12.2553 -19.8375 -7.30527
-12.2561 -19.8384 -7.30158
-12.2569 -19.8392 -7.29789
-12.2577 -19.8401 -7.2942
-12.2584 -19.8409 -7.29051
-12.2592 -19.8418 -7.28682
-12.26 -19.8426 -7.28312
-12.2608 -19.8435 -7.27943
-12.2616 -19.8443 -7.27574
-12.2623 -19.8452 -7.27205
-12.2631 -19.846 -7.26836
-12.2639 -19.8469 -7.26467
-12.2647 -19.8477 -7.26098
-12.2654 -19.8486 -7.25729
-12.2662 -19.8494 -7.2536
-12.267 -19.8503 -7.24991
-12.2678 -19.8511 -7.24622
-12.2685 -19.852 -7.24253
-12.2693 -19.8528 -7.23884
-12.2701 -19.8537 -7.23515
-12.2709 -19.8545 -7.23146
-12.2717 -19.8554 -7.22777
-12.2724 -19.8562 -7.22408
-12.2732 -19.8571 -7.22039
-12.274 -19.8579 -7.2167
-12.2748 -19.8588 -7.21301
-12.2755 -19.8596 -7.20932
-12.2763 -19.8605 -7.20563
-12.2771 -19.8613 -7.20194
-12.2779 -19.8622 -7.19825
-12.2786 -19.863 -7.19455
-12.2794 -19.8639 -7.19086
-12.2802 -19.8647 -7.18717
-12.281 -19.8656 -7.18348
-12.2818 -19.8664 -7.17979
-12.2825 -19.8673 -7.1761
-12.2833 -19.8681 -7.17241
-12.2841 -19.869 -7.16872
-12.2849 -19.8698 -7.16503
-12.2856 -19.8707 -7.16134
-12.2864 -19.8716 -7.15765
-12.2872 -19.8724 -7.15396
-12.288 -19.8733 -7.15027
-12.2887 -19.8741 -7.14658
-12.2895 -19.875 -7.14289
-12.2903 -19.8758 -7.1392
-12.2911 -19.8767 -7.13551
-12.2919 -19.8775 -7.13182
-12.2926 -19.8784 -7.12813
-12.2934 -19.8792 -7.12444
-12.2942 -19.8801 -7.12075
-12.295 -19.8809 -7.11706
-12.2957 -19.8818 -7.11337
-12.2965 -19.8826 -7.10967
-12.2973 -19.8835 -7.10598
-12.2981 -19.8843 -7.10229
-12.2988 -19.8852 -7.0986
-12.2996 -19.886 -7.09491
-12.3004 -19.8869 -7.09122
-12.3012 -19.8877 -7.08753
-12.302 -19.8886 -7.08384
-12.3027 -19.8894 -7.08015
-12.3035 -19.8903 -7.07646
-12.3043 -19.8911 -7.07277
-12.3051 -19.892 -7.06908
-12.3058 -19.8928 -7.06539
-12.3066 -19.8937 -7.0617
-12.3074 -19.8945 -7.05801
-12.3082 -19.8954 -7.05432
-12.3089 -19.8962 -7.05063
-12.3097 -19.8971 -7.04694
-12.3105 -19.8979 -7.04325
-12.3113 -19.8988 -7.03956
-12.3121 -19.8996 -7.03587
-12.3128 -19.9005 -7.03218
-12.3136 -19.9013 -7.02849
-12.3144 -19.9022 -7.0248
-12.3152 -19.903 -7.0211
-12.3159 -19.9039 -7.01741
-12.3167 -19.9047 -7.01372
-12.3175 -19.9056 -7.01003
-12.3183 -19.9064 -7.00634
-12.319 -19.9073 -7.00265
-12.3198 -19.9081 -6.99896
-12.3206 -19.909 -6.99527
-12.3214 -19.9099 -6.99158
-12.3222 -19.9107 -6.98789
-12.3229 -19.9116 -6.9842
10.0817 4.28777 1.45044
9.94591 4.14094 1.4495
9.81012 3.99412 1.44856
9.67432 3.84729 1.44763
9.53852 3.70047 1.44669
9.40273 3.55364 1.44575
9.26693 3.40682 1.44482
9.13113 3.25999 1.44388
8.99533 3.11316 1.44294
8.85954 2.96634 1.44201
8.72374 2.81951 1.44107
8.58794 2.67268 1.44013
8.45215 2.52586 1.4392
8.31635 2.37903 1.43826
8.18055 2.23221 1.43732
8.04475 2.08538 1.43639
7.90896 1.93855 1.43545
7.77316 1.79173 1.43451
7.63736 1.6449 1.43358
7.50157 1.49808 1.43264
7.36577 1.35125 1.4317
7.22997 1.20442 1.43077
7.09417 1.0576 1.42983
6.95838 0.910773 1.42889
6.82258 0.763947 1.42795
6.68678 0.617121 1.42702
6.55099 0.470295 1.42608
6.41519 0.323469 1.42514
6.27939 0.176643 1.42421
6.1436 0.0298169 1.42327
6.0078 -0.117009 1.42233
5.872 -0.263835 1.4214
5.7362 -0.410662 1.42046
5.60041 -0.557488 1.41952
5.46461 -0.704314 1.41859
5.32881 -0.85114 1.41765
5.19301 -0.997966 1.41671
5.05722 -1.14479 1.41578
4.92142 -1.29162 1.41484
4.78562 -1.43844 1.4139
4.64983 -1.58527 1.41297
4.51403 -1.7321 1.41203
4.37823 -1.87892 1.41109
4.24243 -2.02575 1.41016
4.10664 -2.17258 1.40922
3.97084 -2.3194 1.40828
3.83504 -2.46623 1.40735
3.69925 -2.61305 1.40641
3.56345 -2.75988 1.40547
3.42765 -2.90671 1.40454
3.29185 -3.05353 1.4036
3.15606 -3.20036 1.40266
3.02026 -3.34719 1.40173
2.88446 -3.49401 1.40079
2.74866 -3.64084 1.39985
2.61287 -3.78766 1.39892
2.47707 -3.93449 1.39798
2.34127 -4.08132 1.39704
2.20548 -4.22814 1.39611
2.06968 -4.37497 1.39517
1.93388 -4.52179 1.39423
1.79808 -4.66862 1.3933
1.66229 -4.81545 1.39236
1.52649 -4.96227 1.39142
1.39069 -5.1091 1.39049
1.2549 -5.25593 1.38955
1.1191 -5.40275 1.38861
0.983301 -5.54958 1.38767
0.847503 -5.6964 1.38674
0.711706 -5.84323 1.3858
0.575909 -5.99006 1.38486
0.440112 -6.13688 1.38393
0.304315 -6.28371 1.38299
0.168517 -6.43053 1.38205
0.0327203 -6.57736 1.38112
-0.103077 -6.72419 1.38018
-0.238874 -6.87101 1.37924
-0.374671 -7.01784 1.37831
-0.510468 -7.16466 1.37737
-0.646265 -7.31149 1.37643
-0.782062 -7.45832 1.3755
-0.917859 -7.60514 1.37456
-1.05366 -7.75197 1.37362
-1.18945 -7.89879 1.37269
-1.32525 -8.04562 1.37175
-1.46105 -8.19245 1.37081
-1.59684 -8.33927 1.36988
-1.73264 -8.4861 1.36894
-1.86844 -8.63293 1.368
-2.00424 -8.77975 1.36707
-2.14003 -8.92658 1.36613
-2.27583 -9.0734 1.36519
-2.41163 -9.22023 1.36426
-2.54742 -9.36705 1.36332
-2.68322 -9.51388 1.36238
-2.81902 -9.66071 1.36145
-2.95482 -9.80753 1.36051
-3.09061 -9.95436 1.35957
-3.22641 -10.1012 1.35864
-3.36221 -10.248 1.3577
-3.498 -10.3948 1.35676
10.0837 4.29748 -1.08232
9.94786 4.15065 -1.08264
9.81207 4.00382 -1.08295
9.67627 3.85699 -1.08326
9.54047 3.71017 -1.08358
9.40467 3.56334 -1.08389
9.26887 3.41651 -1.0842
9.13308 3.26968 -1.08452
8.99728 3.12285 -1.08483
8.86148 2.97602 -1.08514
8.72568 2.82919 -1.08546
8.58988 2.68236 -1.08577
8.45409 2.53554 -1.08609
8.31829 2.38871 -1.0864
8.18249 2.24188 -1.08671
8.04669 2.09505 -1.08703
7.9109 1.94822 -1.08734
7.7751 1.80139 -1.08765
7.6393 1.65456 -1.08797
7.5035 1.50773 -1.08828
7.3677 1.36091 -1.08859
7.23191 1.21408 -1.08891
7.09611 1.06725 -1.08922
6.96031 0.920419 -1.08953
6.82451 0.77359 -1.08985
6.68871 0.626762 -1.09016
6.55292 0.479933 -1.09047
6.41712 0.333104 -1.09079
6.28132 0.186275 -1.0911
6.14552 0.0394466 -1.09142
6.00972 -0.107382 -1.09173
5.87393 -0.254211 -1.09204
5.73813 -0.40104 -1.09236
5.60233 -0.547869 -1.09267
5.46653 -0.694698 -1.09298
5.33073 -0.841527 -1.0933
5.19494 -0.988356 -1.09361
5.05914 -1.13518 -1.09392
4.92334 -1.28201 -1.09424
4.78754 -1.42884 -1.09455
4.65174 -1.57567 -1.09486
4.51595 -1.7225 -1.09518
4.38015 -1.86933 -1.09549
4.24435 -2.01616 -1.0958
4.10855 -2.16299 -1.09612
3.97275 -2.30982 -1.09643
3.83696 -2.45665 -1.09675
3.70116 -2.60347 -1.09706
3.56536 -2.7503 -1.09737
3.42956 -2.89713 -1.09769
3.29376 -3.04396 -1.098
3.15797 -3.19079 -1.09831
3.02217 -3.33762 -1.09863
2.88637 -3.48445 -1.09894
2.75057 -3.63128 -1.09925
2.61477 -3.7781 -1.09957
2.47898 -3.92493 -1.09988
2.34318 -4.07176 -1.10019
2.20738 -4.21859 -1.10051
2.07158 -4.36542 -1.10082
1.93578 -4.51225 -1.10113
1.79999 -4.65908 -1.10145
1.66419 -4.80591 -1.10176
1.52839 -4.95274 -1.10207
1.39259 -5.09957 -1.10239
1.25679 -5.24639 -1.1027
1.121 -5.39322 -1.10302
0.985198 -5.54005 -1.10333
0.849399 -5.68688 -1.10364
0.713601 -5.83371 -1.10396
0.577803 -5.98054 -1.10427
0.442005 -6.12737 -1.10458
0.306207 -6.2742 -1.1049
0.170409 -6.42103 -1.10521
0.0346117 -6.56785 -1.10552
-0.101186 -6.71468 -1.10584
-0.236984 -6.86151 -1.10615
-0.372782 -7.00834 -1.10646
-0.50858 -7.15517 -1.10678
-0.644378 -7.302 -1.10709
-0.780175 -7.44883 -1.1074
-0.915973 -7.59566 -1.10772
-1.05177 -7.74248 -1.10803
-1.18757 -7.88931 -1.10835
-1.32337 -8.03614 -1.10866
-1.45916 -8.18297 -1.10897
-1.59496 -8.3298 -1.10929
-1.73076 -8.47663 -1.1096
-1.86656 -8.62346 -1.10991
-2.00236 -8.77028 -1.11023
-2.13815 -8.91711 -1.11054
-2.27395 -9.06394 -1.11085
-2.40975 -9.21077 -1.11117
-2.54555 -9.3576 -1.11148
-2.68135 -9.50443 -1.11179
-2.81714 -9.65126 -1.11211
-2.95294 -9.79809 -1.11242
-3.08874 -9.94492 -1.11273
-3.22454 -10.0917 -1.11305
-3.36034 -10.2386 -1.11336
-3.49613 -10.3854 -1.11368
1.13144 -4.62853 10.0066
1.13257 -4.62853 9.80663
1.13371 -4.62853 9.60664
1.13484 -4.62853 9.40664
1.13598 -4.62854 9.20664
1.13711 -4.62854 9.00665
1.13825 -4.62854 8.80665
1.13938 -4.62854 8.60665
1.14052 -4.62854 8.40666
1.14165 -4.62855 8.20666
1.14279 -4.62855 8.00666
1.14392 -4.62855 7.80667
1.14506 -4.62855 7.60667
1.14619 -4.62855 7.40667
1.14733 -4.62856 7.20668
1.14846 -4.62856 7.00668
1.1496 -4.62856 6.80669
1.15073 -4.62856 6.60669
1.15187 -4.62856 6.40669
1.153 -4.62857 6.2067
1.15414 -4.62857 6.0067
1.15527 -4.62857 5.8067
1.15641 -4.62857 5.60671
1.15754 -4.62858 5.40671
1.15868 -4.62858 5.20671
1.15981 -4.62858 5.00672
1.16095 -4.62858 4.80672
1.16208 -4.62858 4.60672
1.16322 -4.62859 4.40673
1.16435 -4.62859 4.20673
1.16549 -4.62859 4.00673
1.16662 -4.62859 3.80674
1.16776 -4.62859 3.60674
1.16889 -4.6286 3.40674
1.17003 -4.6286 3.20675
1.17116 -4.6286 3.00675
1.1723 -4.6286 2.80675
1.17343 -4.6286 2.60676
1.17457 -4.62861 2.40676
1.1757 -4.62861 2.20676
1.17684 -4.62861 2.00676
1.17797 -4.62861 1.80677
1.17911 -4.62862 1.60677
1.18024 -4.62862 1.40677
1.18138 -4.62862 1.20678
1.18251 -4.62862 1.00678
1.18365 -4.62862 0.806784
1.18478 -4.62863 0.606787
1.18592 -4.62863 0.406791
1.18705 -4.62863 0.206794
1.18819 -4.62863 0.0067971
1.18932 -4.62863 -0.1932
1.19046 -4.62864 -0.393196
1.19159 -4.62864 -0.593193
1.19273 -4.62864 -0.79319
1.19386 -4.62864 -0.993187
1.195 -4.62865 -1.19318
1.19613 -4.62865 -1.39318
1.19727 -4.62865 -1.59318
1.1984 -4.62865 -1.79317
1.19954 -4.62865 -1.99317
1.20067 -4.62866 -2.19317
1.20181 -4.62866 -2.39316
1.20294 -4.62866 -2.59316
1.20408 -4.62866 -2.79316
1.20521 -4.62866 -2.99315
1.20635 -4.62867 -3.19315
1.20748 -4.62867 -3.39315
1.20862 -4.62867 -3.59315
1.20975 -4.62867 -3.79314
1.21089 -4.62867 -3.99314
1.21202 -4.62868 -4.19314
1.21316 -4.62868 -4.39313
1.21429 -4.62868 -4.59313
1.21543 -4.62868 -4.79313
1.21656 -4.62869 -4.99312
1.2177 -4.62869 -5.19312
1.21883 -4.62869 -5.39312
1.21997 -4.62869 -5.59311
1.2211 -4.62869 -5.79311
1.22224 -4.6287 -5.9931
1.22337 -4.6287 -6.1931
1.22451 -4.6287 -6.3931
1.22564 -4.6287 -6.59309
1.22678 -4.6287 -6.79309
1.22791 -4.62871 -6.99309
1.22905 -4.62871 -7.19308
1.23018 -4.62871 -7.39308
1.23132 -4.62871 -7.59308
1.23245 -4.62872 -7.79307
1.23359 -4.62872 -7.99307
1.23472 -4.62872 -8.19307
1.23586 -4.62872 -8.39306
1.23699 -4.62872 -8.59306
1.23813 -4.62873 -8.79306
1.23926 -4.62873 -8.99305
1.2404 -4.62873 -9.19305
1.24153 -4.62873 -9.39305
1.24267 -4.62873 -9.59304
1.2438 -4.62874 -9.79304
1.24494 -4.62874 -9.99304
-17.3136 -25.1384 -62.7674
-17.3127 -25.1375 -62.768
-17.3119 -25.1366 -62.7686
-17.311 -25.1357 -62.7692
-17.3102 -25.1348 -62.7698
-17.3093 -25.1339 -62.7704
-17.3085 -25.133 -62.771
-17.3076 -25.132 -62.7716
-17.3068 -25.1311 -62.7722
-17.306 -25.1302 -62.7727
-17.3051 -25.1293 -62.7733
-17.3043 -25.1284 -62.7739
-17.3034 -25.1275 -62.7745
-17.3026 -25.1266 -62.7751
-17.3017 -25.1256 -62.7757
-17.3009 -25.1247 -62.7763
-17.3 -25.1238 -62.7769
-17.2992 -25.1229 -62.7775
-17.2984 -25.122 -62.7781
-17.2975 -25.1211 -62.7787
-17.2967 -25.1202 -62.7793
-17.2958 -25.1192 -62.7799
-17.295 -25.1183 -62.7805
-17.2941 -25.1174 -62.7811
-17.2933 -25.1165 -62.7817
-17.2924 -25.1156 -62.7823
-17.2916 -25.1147 -62.7829
-17.2908 -25.1138 -62.7835
-17.2899 -25.1128 -62.7841
-17.2891 -25.1119 -62.7847
-17.2882 -25.111 -62.7853
-17.2874 -25.1101 -62.7859
-17.2865 -25.1092 -62.7865
-17.2857 -25.1083 -62.7871
-17.2849 -25.1074 -62.7877
-17.284 -25.1064 -62.7883
-17.2832 -25.1055 -62.7889
-17.2823 -25.1046 -62.7895
-17.2815 -25.1037 -62.7901
-17.2806 -25.1028 -62.7907
-17.2798 -25.1019 -62.7913
-17.2789 -25.101 -62.7919
-17.2781 -25.1 -62.7925
-17.2773 -25.0991 -62.7931
-17.2764 -25.0982 -62.7937
-17.2756 -25.0973 -62.7943
-17.2747 -25.0964 -62.7949
-17.2739 -25.0955 -62.7955
-17.273 -25.0945 -62.7961
-17.2722 -25.0936 -62.7966
-17.2713 -25.0927 -62.7972
-17.2705 -25.0918 -62.7978
-17.2697 -25.0909 -62.7984
-17.2688 -25.09 -62.799
-17.268 -25.0891 -62.7996
-17.2671 -25.0881 -62.8002
-17.2663 -25.0872 -62.8008
-17.2654 -25.0863 -62.8014
-17.2646 -25.0854 -62.802
-17.2638 -25.0845 -62.8026
-17.2629 -25.0836 -62.8032
-17.2621 -25.0827 -62.8038
-17.2612 -25.0817 -62.8044
-17.2604 -25.0808 -62.805
-17.2595 -25.0799 -62.8056
-17.2587 -25.079 -62.8062
-17.2578 -25.0781 -62.8068
-17.257 -25.0772 -62.8074
-17.2562 -25.0763 -62.808
-17.2553 -25.0753 -62.8086
-17.2545 -25.0744 -62.8092
-17.2536 -25.0735 -62.8098
-17.2528 -25.0726 -62.8104
-17.2519 -25.0717 -62.811
-17.2511 -25.0708 -62.8116
-17.2502 -25.0699 -62.8122
-17.2494 -25.0689 -62.8128
-17.2486 -25.068 -62.8134
-17.2477 -25.0671 -62.814
-17.2469 -25.0662 -62.8146
-17.246 -25.0653 -62.8152
-17.2452 -25.0644 -62.8158
-17.2443 -25.0635 -62.8164
-17.2435 -25.0625 -62.817
-17.2426 -25.0616 -62.8176
-17.2418 -25.0607 -62.8182
-17.241 -25.0598 -62.8188
-17.2401 -25.0589 -62.8194
-17.2393 -25.058 -62.82
-17.2384 -25.0571 -62.8206
-17.2376 -25.0561 -62.8212
-17.2367 -25.0552 -62.8218
-17.2359 -25.0543 -62.8223
-17.2351 -25.0534 -62.8229
-17.2342 -25.0525 -62.8235
-17.2334 -25.0516 -62.8241
-17.2325 -25.0507 -62.8247
-17.2317 -25.0497 -62.8253
-17.2308 -25.0488 -62.8259
-17.23 -25.0479 -62.8265
-17.2291 -25.047 -62.8271
3.63819 -1.90176 10.0183
3.63913 -1.90198 9.81834
3.64006 -1.9022 9.61836
3.641 -1.90242 9.41838
3.64193 -1.90264 9.2184
3.64287 -1.90285 9.01842
3.6438 -1.90307 8.81845
3.64474 -1.90329 8.61847
3.64567 -1.90351 8.41849
3.64661 -1.90373 8.21851
3.64754 -1.90395 8.01853
3.64848 -1.90417 7.81855
3.64941 -1.90439 7.61857
3.65035 -1.90461 7.41859
3.65128 -1.90483 7.21861
3.65222 -1.90505 7.01863
3.65315 -1.90527 6.81865
3.65409 -1.90549 6.61867
3.65502 -1.90571 6.41869
3.65596 -1.90593 6.21871
3.65689 -1.90615 6.01873
3.65783 -1.90637 5.81875
3.65876 -1.90659 5.61877
3.6597 -1.90681 5.41879
3.66063 -1.90703 5.21881
3.66157 -1.90725 5.01883
3.6625 -1.90746 4.81885
3.66344 -1.90768 4.61887
3.66437 -1.9079 4.41889
3.66531 -1.90812 4.21891
3.66624 -1.90834 4.01893
3.66718 -1.90856 3.81895
3.66811 -1.90878 3.61897
3.66905 -1.909 3.41899
3.66998 -1.90922 3.21901
3.67092 -1.90944 3.01903
3.67185 -1.90966 2.81905
3.67279 -1.90988 2.61907
3.67372 -1.9101 2.41909
3.67466 -1.91032 2.21911
3.67559 -1.91054 2.01913
3.67653 -1.91076 1.81915
3.67746 -1.91098 1.61917
3.6784 -1.9112 1.41919
3.67933 -1.91142 1.21921
3.68027 -1.91164 1.01923
3.6812 -1.91185 0.819254
3.68214 -1.91207 0.619274
3.68307 -1.91229 0.419294
3.68401 -1.91251 0.219314
3.68495 -1.91273 0.0193343
3.68588 -1.91295 -0.180646
3.68682 -1.91317 -0.380625
3.68775 -1.91339 -0.580605
3.68869 -1.91361 -0.780585
3.68962 -1.91383 -0.980565
3.69056 -1.91405 -1.18054
3.69149 -1.91427 -1.38052
3.69243 -1.91449 -1.5805
3.69336 -1.91471 -1.78048
3.6943 -1.91493 -1.98046
3.69523 -1.91515 -2.18044
3.69617 -1.91537 -2.38042
3.6971 -1.91559 -2.5804
3.69804 -1.91581 -2.78038
3.69897 -1.91603 -2.98036
3.69991 -1.91624 -3.18034
3.70084 -1.91646 -3.38032
3.70178 -1.91668 -3.5803
3.70271 -1.9169 -3.78028
3.70365 -1.91712 -3.98026
3.70458 -1.91734 -4.18024
3.70552 -1.91756 -4.38022
3.70645 -1.91778 -4.5802
3.70739 -1.918 -4.78018
3.70832 -1.91822 -4.98016
3.70926 -1.91844 -5.18014
3.71019 -1.91866 -5.38012
3.71113 -1.91888 -5.5801
3.71206 -1.9191 -5.78008
3.713 -1.91932 -5.98006
3.71393 -1.91954 -6.18004
3.71487 -1.91976 -6.38002
3.7158 -1.91998 -6.58
3.71674 -1.9202 -6.77998
3.71767 -1.92042 -6.97996
3.71861 -1.92063 -7.17994
3.71954 -1.92085 -7.37992
3.72048 -1.92107 -7.5799
3.72141 -1.92129 -7.77988
3.72235 -1.92151 -7.97986
3.72328 -1.92173 -8.17984
3.72422 -1.92195 -8.37982
3.72515 -1.92217 -8.5798
3.72609 -1.92239 -8.77978
3.72702 -1.92261 -8.97976
3.72796 -1.92283 -9.17974
3.72889 -1.92305 -9.37972
3.72983 -1.92327 -9.5797
3.73076 -1.92349 -9.77968
3.7317 -1.92371 -9.97966
3.60722 -1.99842 -0.166842
3.60728 -1.99834 -0.163749
3.60733 -1.99827 -0.160656
3.60738 -1.99819 -0.157563
3.60743 -1.99811 -0.154471
3.60749 -1.99804 -0.151378
3.60754 -1.99796 -0.148285
3.60759 -1.99788 -0.145192
3.60765 -1.99781 -0.142099
3.6077 -1.99773 -0.139006
3.60775 -1.99765 -0.135913
3.6078 -1.99758 -0.13282
3.60786 -1.9975 -0.129727
3.60791 -1.99742 -0.126634
3.60796 -1.99735 -0.123541
3.60801 -1.99727 -0.120448
3.60807 -1.9972 -0.117356
3.60812 -1.99712 -0.114263
3.60817 -1.99704 -0.11117
3.60822 -1.99697 -0.108077
3.60828 -1.99689 -0.104984
3.60833 -1.99681 -0.101891
3.60838 -1.99674 -0.0987981
3.60844 -1.99666 -0.0957052
3.60849 -1.99658 -0.0926123
3.60854 -1.99651 -0.0895194
3.60859 -1.99643 -0.0864265
3.60865 -1.99635 -0.0833336
3.6087 -1.99628 -0.0802406
3.60875 -1.9962 -0.0771477
3.6088 -1.99613 -0.0740548
3.60886 -1.99605 -0.0709619
3.60891 -1.99597 -0.067869
3.60896 -1.9959 -0.0647761
3.60901 -1.99582 -0.0616832
3.60907 -1.99574 -0.0585902
3.60912 -1.99567 -0.0554973
3.60917 -1.99559 -0.0524044
3.60923 -1.99551 -0.0493115
3.60928 -1.99544 -0.0462186
3.60933 -1.99536 -0.0431257
3.60938 -1.99528 -0.0400327
3.60944 -1.99521 -0.0369398
3.60949 -1.99513 -0.0338469
3.60954 -1.99506 -0.030754
3.60959 -1.99498 -0.0276611
3.60965 -1.9949 -0.0245682
3.6097 -1.99483 -0.0214753
3.60975 -1.99475 -0.0183823
3.60981 -1.99467 -0.0152894
3.60986 -1.9946 -0.0121965
3.60991 -1.99452 -0.0091036
3.60996 -1.99444 -0.00601068
3.61002 -1.99437 -0.00291777
3.61007 -1.99429 0.000175146
3.61012 -1.99421 0.00326806
3.61017 -1.99414 0.00636098
3.61023 -1.99406 0.00945389
3.61028 -1.99399 0.0125468
3.61033 -1.99391 0.0156397
3.61038 -1.99383 0.0187326
3.61044 -1.99376 0.0218256
3.61049 -1.99368 0.0249185
3.61054 -1.9936 0.0280114
3.6106 -1.99353 0.0311043
3.61065 -1.99345 0.0341972
3.6107 -1.99337 0.0372901
3.61075 -1.9933 0.040383
3.61081 -1.99322 0.043476
3.61086 -1.99314 0.0465689
3.61091 -1.99307 0.0496618
3.61096 -1.99299 0.0527547
3.61102 -1.99292 0.0558476
3.61107 -1.99284 0.0589405
3.61112 -1.99276 0.0620334
3.61117 -1.99269 0.0651264
3.61123 -1.99261 0.0682193
3.61128 -1.99253 0.0713122
3.61133 -1.99246 0.0744051
3.61139 -1.99238 0.077498
3.61144 -1.9923 0.0805909
3.61149 -1.99223 0.0836838
3.61154 -1.99215 0.0867767
3.6116 -1.99207 0.0898696
3.61165 -1.992 0.0929626
3.6117 -1.99192 0.0960555
3.61175 -1.99185 0.0991484
3.61181 -1.99177 0.102241
3.61186 -1.99169 0.105334
3.61191 -1.99162 0.108427
3.61196 -1.99154 0.11152
3.61202 -1.99146 0.114613
3.61207 -1.99139 0.117706
3.61212 -1.99131 0.120799
3.61218 -1.99123 0.123892
3.61223 -1.99116 0.126985
3.61228 -1.99108 0.130078
3.61233 -1.991 0.13317
3.61239 -1.99093 0.136263
3.61244 -1.99085 0.139356
3.61249 -1.99078 0.142449
9.70907 4.64879 1.45008
9.57372 4.50155 1.44915
9.43836 4.35432 1.44821
9.30301 4.20708 1.44727
9.16766 4.05985 1.44634
9.0323 3.91261 1.4454
8.89695 3.76538 1.44446
8.7616 3.61814 1.44353
8.62624 3.47091 1.44259
8.49089 3.32368 1.44166
8.35554 3.17644 1.44072
8.22018 3.02921 1.43978
8.08483 2.88197 1.43885
7.94948 2.73474 1.43791
7.81412 2.5875 1.43697
7.67877 2.44027 1.43604
7.54342 2.29303 1.4351
7.40806 2.1458 1.43417
7.27271 1.99856 1.43323
7.13736 1.85133 1.43229
7.002 1.70409 1.43136
6.86665 1.55686 1.43042
6.7313 1.40962 1.42948
6.59594 1.26239 1.42855
6.46059 1.11515 1.42761
6.32524 0.967919 1.42668
6.18988 0.820684 1.42574
6.05453 0.673449 1.4248
5.91918 0.526214 1.42387
5.78382 0.378979 1.42293
5.64847 0.231745 1.42199
5.51312 0.0845096 1.42106
5.37776 -0.0627253 1.42012
5.24241 -0.20996 1.41919
5.10706 -0.357195 1.41825
4.9717 -0.50443 1.41731
4.83635 -0.651665 1.41638
4.701 -0.7989 1.41544
4.56564 -0.946135 1.4145
4.43029 -1.09337 1.41357
4.29494 -1.24061 1.41263
4.15958 -1.38784 1.4117
4.02423 -1.53508 1.41076
3.88888 -1.68231 1.40982
3.75352 -1.82955 1.40889
3.61817 -1.97678 1.40795
3.48282 -2.12401 1.40701
3.34746 -2.27125 1.40608
3.21211 -2.41848 1.40514
3.07676 -2.56572 1.40421
2.9414 -2.71295 1.40327
2.80605 -2.86019 1.40233
2.6707 -3.00742 1.4014
2.53534 -3.15466 1.40046
2.39999 -3.30189 1.39952
2.26464 -3.44913 1.39859
2.12928 -3.59636 1.39765
1.99393 -3.7436 1.39672
1.85858 -3.89083 1.39578
1.72322 -4.03807 1.39484
1.58787 -4.1853 1.39391
1.45252 -4.33254 1.39297
1.31716 -4.47977 1.39203
1.18181 -4.62701 1.3911
1.04646 -4.77424 1.39016
0.911102 -4.92148 1.38923
0.775749 -5.06871 1.38829
0.640395 -5.21595 1.38735
0.505042 -5.36318 1.38642
0.369689 -5.51042 1.38548
0.234335 -5.65765 1.38454
0.0989816 -5.80489 1.38361
-0.0363715 -5.95212 1.38267
-0.171725 -6.09936 1.38174
-0.307078 -6.24659 1.3808
-0.442431 -6.39383 1.37986
-0.577785 -6.54106 1.37893
-0.713138 -6.6883 1.37799
-0.848491 -6.83553 1.37705
-0.983844 -6.98277 1.37612
-1.1192 -7.13 1.37518
-1.25455 -7.27724 1.37425
-1.3899 -7.42447 1.37331
-1.52526 -7.57171 1.37237
-1.66061 -7.71894 1.37144
-1.79596 -7.86618 1.3705
-1.93132 -8.01341 1.36956
-2.06667 -8.16065 1.36863
-2.20202 -8.30788 1.36769
-2.33738 -8.45512 1.36676
-2.47273 -8.60235 1.36582
-2.60808 -8.74959 1.36488
-2.74344 -8.89682 1.36395
-2.87879 -9.04405 1.36301
-3.01414 -9.19129 1.36207
-3.1495 -9.33852 1.36114
-3.28485 -9.48576 1.3602
-3.4202 -9.63299 1.35927
-3.55556 -9.78023 1.35833
-3.69091 -9.92746 1.35739
-3.82626 -10.0747 1.35646
9.72236 4.64759 -1.08059
9.587 4.50036 -1.08091
9.45165 4.35313 -1.08122
9.3163 4.2059 -1.08154
9.18094 4.05867 -1.08186
9.04559 3.91144 -1.08217
8.91024 3.76421 -1.08249
8.77488 3.61698 -1.0828
8.63953 3.46975 -1.08312
8.50418 3.32251 -1.08343
8.36882 3.17528 -1.08375
8.23347 3.02805 -1.08406
8.09812 2.88082 -1.08438
7.96276 2.73359 -1.0847
7.82741 2.58636 -1.08501
7.69206 2.43913 -1.08533
7.5567 2.2919 -1.08564
7.42135 2.14467 -1.08596
7.286 1.99744 -1.08627
7.15064 1.8502 -1.08659
7.01529 1.70297 -1.0869
6.87994 1.55574 -1.08722
6.74458 1.40851 -1.08754
6.60923 1.26128 -1.08785
6.47388 1.11405 -1.08817
6.33852 0.966817 -1.08848
6.20317 0.819586 -1.0888
6.06782 0.672355 -1.08911
5.93246 0.525124 -1.08943
5.79711 0.377893 -1.08974
5.66176 0.230662 -1.09006
5.5264 0.0834308 -1.09038
5.39105 -0.0638006 -1.09069
5.2557 -0.211032 -1.09101
5.12034 -0.358263 -1.09132
4.98499 -0.505494 -1.09164
4.84963 -0.652725 -1.09195
4.71428 -0.799957 -1.09227
4.57893 -0.947188 -1.09258
4.44357 -1.09442 -1.0929
4.30822 -1.24165 -1.09322
4.17287 -1.38888 -1.09353
4.03751 -1.53611 -1.09385
3.90216 -1.68334 -1.09416
3.76681 -1.83058 -1.09448
3.63145 -1.97781 -1.09479
3.4961 -2.12504 -1.09511
3.36075 -2.27227 -1.09542
3.22539 -2.4195 -1.09574
3.09004 -2.56673 -1.09606
2.95469 -2.71396 -1.09637
2.81933 -2.86119 -1.09669
2.68398 -3.00842 -1.097
2.54862 -3.15566 -1.09732
2.41327 -3.30289 -1.09763
2.27792 -3.45012 -1.09795
2.14256 -3.59735 -1.09826
2.00721 -3.74458 -1.09858
1.87186 -3.89181 -1.0989
1.7365 -4.03904 -1.09921
1.60115 -4.18628 -1.09953
1.4658 -4.33351 -1.09984
1.33044 -4.48074 -1.10016
1.19509 -4.62797 -1.10047
1.05974 -4.7752 -1.10079
0.924383 -4.92243 -1.1011
0.789029 -5.06966 -1.10142
0.653676 -5.21689 -1.10174
0.518322 -5.36412 -1.10205
0.382969 -5.51136 -1.10237
0.247615 -5.65859 -1.10268
0.112262 -5.80582 -1.103
-0.0230918 -5.95305 -1.10331
-0.158445 -6.10028 -1.10363
-0.293798 -6.24751 -1.10394
-0.429152 -6.39474 -1.10426
-0.564505 -6.54197 -1.10458
-0.699859 -6.68921 -1.10489
-0.835212 -6.83644 -1.10521
-0.970565 -6.98367 -1.10552
-1.10592 -7.1309 -1.10584
-1.24127 -7.27813 -1.10615
-1.37663 -7.42536 -1.10647
-1.51198 -7.57259 -1.10678
-1.64733 -7.71982 -1.1071
-1.78269 -7.86705 -1.10742
-1.91804 -8.01428 -1.10773
-2.05339 -8.16152 -1.10805
-2.18875 -8.30875 -1.10836
-2.3241 -8.45598 -1.10868
-2.45945 -8.60321 -1.10899
-2.59481 -8.75044 -1.10931
-2.73016 -8.89767 -1.10962
-2.86551 -9.0449 -1.10994
-3.00087 -9.19213 -1.11026
-3.13622 -9.33937 -1.11057
-3.27157 -9.4866 -1.11089
-3.40693 -9.63383 -1.1112
-3.54228 -9.78106 -1.11152
-3.67763 -9.92829 -1.11183
-3.81299 -10.0755 -1.11215
4.04547 -2.20446 -10.0053
4.04546 -2.20507 -9.80528
4.04545 -2.20567 -9.60531
4.04545 -2.20628 -9.40534
4.04544 -2.20689 -9.20536
4.04543 -2.2075 -9.00539
4.04542 -2.20811 -8.80542
4.04541 -2.20872 -8.60545
4.0454 -2.20933 -8.40548
4.04539 -2.20994 -8.2055
4.04538 -2.21055 -8.00553
4.04538 -2.21116 -7.80556
4.04537 -2.21177 -7.60559
4.04536 -2.21238 -7.40561
4.04535 -2.21299 -7.20564
4.04534 -2.2136 -7.00567
4.04533 -2.21421 -6.8057
4.04532 -2.21482 -6.60573
4.04531 -2.21543 -6.40575
4.04531 -2.21604 -6.20578
4.0453 -2.21665 -6.00581
4.04529 -2.21726 -5.80584
4.04528 -2.21786 -5.60587
4.04527 -2.21847 -5.40589
4.04526 -2.21908 -5.20592
4.04525 -2.21969 -5.00595
4.04525 -2.2203 -4.80598
4.04524 -2.22091 -4.606
4.04523 -2.22152 -4.40603
4.04522 -2.22213 -4.20606
4.04521 -2.22274 -4.00609
4.0452 -2.22335 -3.80612
4.04519 -2.22396 -3.60614
4.04518 -2.22457 -3.40617
4.04518 -2.22518 -3.2062
4.04517 -2.22579 -3.00623
4.04516 -2.2264 -2.80625
4.04515 -2.22701 -2.60628
4.04514 -2.22762 -2.40631
4.04513 -2.22823 -2.20634
4.04512 -2.22884 -2.00636
4.04511 -2.22945 -1.80639
4.04511 -2.23006 -1.60642
4.0451 -2.23066 -1.40645
4.04509 -2.23127 -1.20647
4.04508 -2.23188 -1.0065
4.04507 -2.23249 -0.80653
4.04506 -2.2331 -0.606557
4.04505 -2.23371 -0.406585
4.04504 -2.23432 -0.206613
4.04504 -2.23493 -0.00664043
4.04503 -2.23554 0.193332
4.04502 -2.23615 0.393304
4.04501 -2.23676 0.593277
4.045 -2.23737 0.793249
4.04499 -2.23798 0.993221
4.04498 -2.23859 1.19319
4.04497 -2.2392 1.39317
4.04497 -2.23981 1.59314
4.04496 -2.24042 1.79311
4.04495 -2.24103 1.99308
4.04494 -2.24164 2.19306
4.04493 -2.24225 2.39303
4.04492 -2.24286 2.593
4.04491 -2.24346 2.79297
4.0449 -2.24407 2.99294
4.0449 -2.24468 3.19292
4.04489 -2.24529 3.39289
4.04488 -2.2459 3.59286
4.04487 -2.24651 3.79283
4.04486 -2.24712 3.99281
4.04485 -2.24773 4.19278
4.04484 -2.24834 4.39275
4.04483 -2.24895 4.59272
4.04483 -2.24956 4.7927
4.04482 -2.25017 4.99267
4.04481 -2.25078 5.19264
4.0448 -2.25139 5.39261
4.04479 -2.252 5.59258
4.04478 -2.25261 5.79256
4.04477 -2.25322 5.99253
4.04476 -2.25383 6.1925
4.04476 -2.25444 6.39247
4.04475 -2.25505 6.59245
4.04474 -2.25566 6.79242
4.04473 -2.25626 6.99239
4.04472 -2.25687 7.19236
4.04471 -2.25748 7.39233
4.0447 -2.25809 7.59231
4.04469 -2.2587 7.79228
4.04469 -2.25931 7.99225
4.04468 -2.25992 8.19222
4.04467 -2.26053 8.39219
4.04466 -2.26114 8.59217
4.04465 -2.26175 8.79214
4.04464 -2.26236 8.99211
4.04463 -2.26297 9.19208
4.04462 -2.26358 9.39206
4.04462 -2.26419 9.59203
4.04461 -2.2648 9.792
4.0446 -2.26541 9.99197
3.7317 -1.92371 -9.97967
3.73076 -1.92349 -9.77969
3.72983 -1.92327 -9.57971
3.72889 -1.92305 -9.37973
3.72796 -1.92283 -9.17975
3.72702 -1.92261 -8.97977
3.72609 -1.92239 -8.77979
3.72515 -1.92217 -8.57981
3.72422 -1.92195 -8.37983
3.72328 -1.92173 -8.17985
3.72235 -1.92151 -7.97987
3.72141 -1.92129 -7.77989
3.72048 -1.92107 -7.57991
3.71954 -1.92085 -7.37993
3.71861 -1.92063 -7.17995
3.71767 -1.92042 -6.97997
3.71674 -1.9202 -6.77999
3.7158 -1.91998 -6.58001
3.71487 -1.91976 -6.38003
3.71393 -1.91954 -6.18005
3.713 -1.91932 -5.98007
3.71206 -1.9191 -5.78009
3.71113 -1.91888 -5.58011
3.71019 -1.91866 -5.38013
3.70926 -1.91844 -5.18015
3.70832 -1.91822 -4.98017
3.70739 -1.918 -4.78019
3.70645 -1.91778 -4.58021
3.70552 -1.91756 -4.38023
3.70458 -1.91734 -4.18025
3.70365 -1.91712 -3.98027
3.70271 -1.9169 -3.78029
3.70178 -1.91668 -3.58031
3.70084 -1.91646 -3.38033
3.69991 -1.91624 -3.18035
3.69897 -1.91603 -2.98037
3.69804 -1.91581 -2.78039
3.6971 -1.91559 -2.58041
3.69617 -1.91537 -2.38043
3.69523 -1.91515 -2.18045
3.6943 -1.91493 -1.98047
3.69336 -1.91471 -1.78049
3.69243 -1.91449 -1.58051
3.69149 -1.91427 -1.38054
3.69056 -1.91405 -1.18056
3.68962 -1.91383 -0.980575
3.68869 -1.91361 -0.780595
3.68775 -1.91339 -0.580615
3.68682 -1.91317 -0.380636
3.68588 -1.91295 -0.180656
3.68495 -1.91273 0.0193243
3.68401 -1.91251 0.219304
3.68308 -1.91229 0.419284
3.68214 -1.91207 0.619264
3.68121 -1.91185 0.819244
3.68027 -1.91164 1.01922
3.67934 -1.91142 1.2192
3.6784 -1.9112 1.41918
3.67747 -1.91098 1.61916
3.67653 -1.91076 1.81914
3.6756 -1.91054 2.01912
3.67466 -1.91032 2.2191
3.67372 -1.9101 2.41908
3.67279 -1.90988 2.61906
3.67185 -1.90966 2.81904
3.67092 -1.90944 3.01902
3.66998 -1.90922 3.219
3.66905 -1.909 3.41898
3.66811 -1.90878 3.61896
3.66718 -1.90856 3.81894
3.66624 -1.90834 4.01892
3.66531 -1.90812 4.2189
3.66437 -1.9079 4.41888
3.66344 -1.90768 4.61886
3.6625 -1.90746 4.81884
3.66157 -1.90725 5.01882
3.66063 -1.90703 5.2188
3.6597 -1.90681 5.41878
3.65876 -1.90659 5.61876
3.65783 -1.90637 5.81874
3.65689 -1.90615 6.01872
3.65596 -1.90593 6.2187
3.65502 -1.90571 6.41868
3.65409 -1.90549 6.61866
3.65315 -1.90527 6.81864
3.65222 -1.90505 7.01862
3.65128 -1.90483 7.2186
3.65035 -1.90461 7.41858
3.64941 -1.90439 7.61856
3.64848 -1.90417 7.81854
3.64754 -1.90395 8.01852
3.64661 -1.90373 8.2185
3.64567 -1.90351 8.41848
3.64474 -1.90329 8.61846
3.6438 -1.90307 8.81844
3.64287 -1.90285 9.01842
3.64193 -1.90264 9.2184
3.641 -1.90242 9.41838
3.64006 -1.9022 9.61835
3.63913 -1.90198 9.81833
3.63819 -1.90176 10.0183
3.72675 -1.91927 -9.98255
3.72589 -1.91911 -9.78256
3.72502 -1.91896 -9.58256
3.72416 -1.91881 -9.38256
3.7233 -1.91865 -9.18256
3.72244 -1.9185 -8.98257
3.72158 -1.91835 -8.78257
3.72072 -1.91819 -8.58257
3.71986 -1.91804 -8.38257
3.719 -1.91789 -8.18258
3.71813 -1.91773 -7.98258
3.71727 -1.91758 -7.78258
3.71641 -1.91743 -7.58258
3.71555 -1.91727 -7.38259
3.71469 -1.91712 -7.18259
3.71383 -1.91697 -6.98259
3.71297 -1.91681 -6.78259
3.71211 -1.91666 -6.5826
3.71124 -1.91651 -6.3826
3.71038 -1.91635 -6.1826
3.70952 -1.9162 -5.9826
3.70866 -1.91605 -5.78261
3.7078 -1.91589 -5.58261
3.70694 -1.91574 -5.38261
3.70608 -1.91559 -5.18261
3.70522 -1.91543 -4.98262
3.70436 -1.91528 -4.78262
3.70349 -1.91513 -4.58262
3.70263 -1.91497 -4.38263
3.70177 -1.91482 -4.18263
3.70091 -1.91467 -3.98263
3.70005 -1.91451 -3.78263
3.69919 -1.91436 -3.58263
3.69833 -1.91421 -3.38264
3.69747 -1.91405 -3.18264
3.6966 -1.9139 -2.98264
3.69574 -1.91375 -2.78264
3.69488 -1.91359 -2.58265
3.69402 -1.91344 -2.38265
3.69316 -1.91329 -2.18265
3.6923 -1.91313 -1.98265
3.69144 -1.91298 -1.78266
3.69058 -1.91283 -1.58266
3.68971 -1.91267 -1.38266
3.68885 -1.91252 -1.18266
3.68799 -1.91237 -0.982665
3.68713 -1.91221 -0.782667
3.68627 -1.91206 -0.58267
3.68541 -1.91191 -0.382672
3.68455 -1.91175 -0.182674
3.68369 -1.9116 0.0173232
3.68282 -1.91144 0.217321
3.68196 -1.91129 0.417319
3.6811 -1.91114 0.617316
3.68024 -1.91098 0.817314
3.67938 -1.91083 1.01731
3.67852 -1.91068 1.21731
3.67766 -1.91052 1.41731
3.6768 -1.91037 1.6173
3.67593 -1.91022 1.8173
3.67507 -1.91006 2.0173
3.67421 -1.90991 2.2173
3.67335 -1.90976 2.41729
3.67249 -1.9096 2.61729
3.67163 -1.90945 2.81729
3.67077 -1.9093 3.01729
3.66991 -1.90914 3.21729
3.66905 -1.90899 3.41728
3.66818 -1.90884 3.61728
3.66732 -1.90868 3.81728
3.66646 -1.90853 4.01728
3.6656 -1.90838 4.21727
3.66474 -1.90822 4.41727
3.66388 -1.90807 4.61727
3.66302 -1.90792 4.81727
3.66216 -1.90776 5.01726
3.66129 -1.90761 5.21726
3.66043 -1.90746 5.41726
3.65957 -1.9073 5.61726
3.65871 -1.90715 5.81725
3.65785 -1.907 6.01725
3.65699 -1.90684 6.21725
3.65613 -1.90669 6.41725
3.65527 -1.90654 6.61724
3.6544 -1.90638 6.81724
3.65354 -1.90623 7.01724
3.65268 -1.90608 7.21724
3.65182 -1.90592 7.41723
3.65096 -1.90577 7.61723
3.6501 -1.90562 7.81723
3.64924 -1.90546 8.01723
3.64838 -1.90531 8.21722
3.64751 -1.90516 8.41722
3.64665 -1.905 8.61722
3.64579 -1.90485 8.81722
3.64493 -1.9047 9.01721
3.64407 -1.90454 9.21721
3.64321 -1.90439 9.41721
3.64235 -1.90424 9.61721
3.64149 -1.90408 9.8172
3.64063 -1.90393 10.0172
8.13678 -5.90141 1.41357
7.98775 -5.76803 1.41339
7.83873 -5.63465 1.41322
7.6897 -5.50127 1.41305
7.54067 -5.36789 1.41287
7.39164 -5.23451 1.4127
7.24261 -5.10113 1.41252
7.09359 -4.96775 1.41235
6.94456 -4.83437 1.41218
6.79553 -4.70099 1.412
6.6465 -4.56761 1.41183
6.49747 -4.43423 1.41166
6.34844 -4.30085 1.41148
6.19942 -4.16747 1.41131
6.05039 -4.03409 1.41113
5.90136 -3.90071 1.41096
5.75233 -3.76733 1.41079
5.6033 -3.63395 1.41061
5.45427 -3.50057 1.41044
5.30525 -3.36719 1.41026
5.15622 -3.23381 1.41009
5.00719 -3.10043 1.40992
4.85816 -2.96705 1.40974
4.70913 -2.83367 1.40957
4.56011 -2.70029 1.4094
4.41108 -2.56691 1.40922
4.26205 -2.43353 1.40905
4.11302 -2.30015 1.40887
3.96399 -2.16677 1.4087
3.81496 -2.03339 1.40853
3.66594 -1.90001 1.40835
3.51691 -1.76663 1.40818
3.36788 -1.63325 1.40801
3.21885 -1.49987 1.40783
3.06982 -1.36649 1.40766
2.92079 -1.23311 1.40748
2.77177 -1.09973 1.40731
2.62274 -0.966345 1.40714
2.47371 -0.832965 1.40696
2.32468 -0.699585 1.40679
2.17565 -0.566205 1.40661
2.02662 -0.432824 1.40644
1.87759 -0.299444 1.40627
1.72857 -0.166064 1.40609
1.57954 -0.0326837 1.40592
1.43051 0.100697 1.40575
1.28148 0.234077 1.40557
1.13245 0.367457 1.4054
0.983424 0.500837 1.40522
0.834396 0.634217 1.40505
0.685367 0.767598 1.40488
0.536339 0.900978 1.4047
0.38731 1.03436 1.40453
0.238282 1.16774 1.40436
0.0892536 1.30112 1.40418
-0.0597748 1.4345 1.40401
-0.208803 1.56788 1.40383
-0.357832 1.70126 1.40366
-0.50686 1.83464 1.40349
-0.655888 1.96802 1.40331
-0.804917 2.1014 1.40314
-0.953945 2.23478 1.40296
-1.10297 2.36816 1.40279
-1.252 2.50154 1.40262
-1.40103 2.63492 1.40244
-1.55006 2.7683 1.40227
-1.69909 2.90168 1.4021
-1.84812 3.03506 1.40192
-1.99714 3.16844 1.40175
-2.14617 3.30182 1.40157
-2.2952 3.4352 1.4014
-2.44423 3.56858 1.40123
-2.59326 3.70196 1.40105
-2.74229 3.83534 1.40088
-2.89131 3.96872 1.40071
-3.04034 4.1021 1.40053
-3.18937 4.23548 1.40036
-3.3384 4.36886 1.40018
-3.48743 4.50224 1.40001
-3.63646 4.63562 1.39984
-3.78548 4.769 1.39966
-3.93451 4.90238 1.39949
-4.08354 5.03576 1.39931
-4.23257 5.16914 1.39914
-4.3816 5.30252 1.39897
-4.53063 5.4359 1.39879
-4.67965 5.56928 1.39862
-4.82868 5.70266 1.39845
-4.97771 5.83604 1.39827
-5.12674 5.96942 1.3981
-5.27577 6.1028 1.39792
-5.4248 6.23618 1.39775
-5.57382 6.36956 1.39758
-5.72285 6.50294 1.3974
-5.87188 6.63632 1.39723
-6.02091 6.7697 1.39706
-6.16994 6.90308 1.39688
-6.31896 7.03646 1.39671
-6.46799 7.16985 1.39653
-6.61702 7.30323 1.39636
-6.76605 7.4366 1.39619
8.13882 -5.89543 -1.11481
7.9898 -5.76205 -1.11414
7.84077 -5.62867 -1.11346
7.69174 -5.4953 -1.11279
7.54271 -5.36192 -1.11211
7.39368 -5.22854 -1.11143
7.24465 -5.09516 -1.11076
7.09562 -4.96178 -1.11008
6.94659 -4.82841 -1.10941
6.79756 -4.69503 -1.10873
6.64853 -4.56165 -1.10806
6.4995 -4.42827 -1.10738
6.35047 -4.29489 -1.10671
6.20145 -4.16151 -1.10603
6.05242 -4.02814 -1.10536
5.90339 -3.89476 -1.10468
5.75436 -3.76138 -1.10401
5.60533 -3.628 -1.10333
5.4563 -3.49462 -1.10266
5.30727 -3.36124 -1.10198
5.15824 -3.22787 -1.10131
5.00921 -3.09449 -1.10063
4.86018 -2.96111 -1.09996
4.71115 -2.82773 -1.09928
4.56213 -2.69435 -1.09861
4.4131 -2.56097 -1.09793
4.26407 -2.4276 -1.09726
4.11504 -2.29422 -1.09658
3.96601 -2.16084 -1.09591
3.81698 -2.02746 -1.09523
3.66795 -1.89408 -1.09456
3.51892 -1.7607 -1.09388
3.36989 -1.62733 -1.09321
3.22086 -1.49395 -1.09253
3.07183 -1.36057 -1.09186
2.9228 -1.22719 -1.09118
2.77377 -1.09381 -1.09051
2.62474 -0.960434 -1.08983
2.47572 -0.827056 -1.08916
2.32669 -0.693678 -1.08848
2.17766 -0.560299 -1.0878
2.02863 -0.426921 -1.08713
1.8796 -0.293542 -1.08645
1.73057 -0.160164 -1.08578
1.58154 -0.0267854 -1.0851
1.43251 0.106593 -1.08443
1.28348 0.239971 -1.08375
1.13445 0.37335 -1.08308
0.985422 0.506728 -1.0824
0.836393 0.640107 -1.08173
0.687364 0.773485 -1.08105
0.538334 0.906863 -1.08038
0.389305 1.04024 -1.0797
0.240276 1.17362 -1.07903
0.0912467 1.307 -1.07835
-0.0577826 1.44038 -1.07768
-0.206812 1.57376 -1.077
-0.355841 1.70713 -1.07633
-0.504871 1.84051 -1.07565
-0.6539 1.97389 -1.07498
-0.802929 2.10727 -1.0743
-0.951958 2.24065 -1.07363
-1.10099 2.37403 -1.07295
-1.25002 2.5074 -1.07228
-1.39905 2.64078 -1.0716
-1.54808 2.77416 -1.07093
-1.69711 2.90754 -1.07025
-1.84613 3.04092 -1.06958
-1.99516 3.1743 -1.0689
-2.14419 3.30767 -1.06823
-2.29322 3.44105 -1.06755
-2.44225 3.57443 -1.06688
-2.59128 3.70781 -1.0662
-2.74031 3.84119 -1.06553
-2.88934 3.97457 -1.06485
-3.03837 4.10794 -1.06417
-3.1874 4.24132 -1.0635
-3.33643 4.3747 -1.06282
-3.48546 4.50808 -1.06215
-3.63449 4.64146 -1.06147
-3.78351 4.77484 -1.0608
-3.93254 4.90821 -1.06012
-4.08157 5.04159 -1.05945
-4.2306 5.17497 -1.05877
-4.37963 5.30835 -1.0581
-4.52866 5.44173 -1.05742
-4.67769 5.57511 -1.05675
-4.82672 5.70848 -1.05607
-4.97575 5.84186 -1.0554
-5.12478 5.97524 -1.05472
-5.27381 6.10862 -1.05405
-5.42284 6.242 -1.05337
-5.57186 6.37537 -1.0527
-5.72089 6.50875 -1.05202
-5.86992 6.64213 -1.05135
-6.01895 6.77551 -1.05067
-6.16798 6.90889 -1.05
-6.31701 7.04227 -1.04932
-6.46604 7.17564 -1.04865
-6.61507 7.30902 -1.04797
-6.7641 7.4424 -1.0473
1.17601 -4.66951 10.0036
1.17707 -4.66944 9.80358
1.17813 -4.66937 9.60361
1.17919 -4.6693 9.40363
1.18025 -4.66923 9.20366
1.18131 -4.66917 9.00369
1.18236 -4.6691 8.80372
1.18342 -4.66903 8.60374
1.18448 -4.66896 8.40377
1.18554 -4.66889 8.2038
1.1866 -4.66882 8.00383
1.18766 -4.66876 7.80385
1.18871 -4.66869 7.60388
1.18977 -4.66862 7.40391
1.19083 -4.66855 7.20394
1.19189 -4.66848 7.00396
1.19295 -4.66842 6.80399
1.19401 -4.66835 6.60402
1.19507 -4.66828 6.40405
1.19612 -4.66821 6.20407
1.19718 -4.66814 6.0041
1.19824 -4.66808 5.80413
1.1993 -4.66801 5.60416
1.20036 -4.66794 5.40418
1.20142 -4.66787 5.20421
1.20247 -4.6678 5.00424
1.20353 -4.66773 4.80427
1.20459 -4.66767 4.60429
1.20565 -4.6676 4.40432
1.20671 -4.66753 4.20435
1.20777 -4.66746 4.00438
1.20883 -4.66739 3.8044
1.20988 -4.66733 3.60443
1.21094 -4.66726 3.40446
1.212 -4.66719 3.20448
1.21306 -4.66712 3.00451
1.21412 -4.66705 2.80454
1.21518 -4.66699 2.60457
1.21624 -4.66692 2.40459
1.21729 -4.66685 2.20462
1.21835 -4.66678 2.00465
1.21941 -4.66671 1.80467
1.22047 -4.66664 1.6047
1.22153 -4.66658 1.40473
1.22259 -4.66651 1.20476
1.22364 -4.66644 1.00478
1.2247 -4.66637 0.804811
1.22576 -4.6663 0.604838
1.22682 -4.66624 0.404866
1.22788 -4.66617 0.204893
1.22894 -4.6661 0.00492034
1.23 -4.66603 -0.195052
1.23105 -4.66596 -0.395025
1.23211 -4.66589 -0.594998
1.23317 -4.66583 -0.794971
1.23423 -4.66576 -0.994943
1.23529 -4.66569 -1.19492
1.23635 -4.66562 -1.39489
1.2374 -4.66555 -1.59486
1.23846 -4.66549 -1.79483
1.23952 -4.66542 -1.99481
1.24058 -4.66535 -2.19478
1.24164 -4.66528 -2.39475
1.2427 -4.66521 -2.59473
1.24376 -4.66515 -2.7947
1.24481 -4.66508 -2.99467
1.24587 -4.66501 -3.19464
1.24693 -4.66494 -3.39462
1.24799 -4.66487 -3.59459
1.24905 -4.6648 -3.79456
1.25011 -4.66474 -3.99453
1.25117 -4.66467 -4.19451
1.25222 -4.6646 -4.39448
1.25328 -4.66453 -4.59445
1.25434 -4.66446 -4.79443
1.2554 -4.6644 -4.9944
1.25646 -4.66433 -5.19437
1.25752 -4.66426 -5.39434
1.25857 -4.66419 -5.59432
1.25963 -4.66412 -5.79429
1.26069 -4.66406 -5.99426
1.26175 -4.66399 -6.19423
1.26281 -4.66392 -6.39421
1.26387 -4.66385 -6.59418
1.26493 -4.66378 -6.79415
1.26598 -4.66372 -6.99412
1.26704 -4.66365 -7.1941
1.2681 -4.66358 -7.39407
1.26916 -4.66351 -7.59404
1.27022 -4.66344 -7.79401
1.27128 -4.66337 -7.99399
1.27233 -4.66331 -8.19396
1.27339 -4.66324 -8.39393
1.27445 -4.66317 -8.5939
1.27551 -4.6631 -8.79388
1.27657 -4.66303 -8.99385
1.27763 -4.66297 -9.19382
1.27869 -4.6629 -9.39379
1.27974 -4.66283 -9.59377
1.2808 -4.66276 -9.79374
1.28186 -4.66269 -9.99371
-12.3264 -19.9154 -6.98582
-12.3256 -19.9146 -6.98951
-12.3248 -19.9137 -6.9932
-12.3241 -19.9129 -6.99689
-12.3233 -19.912 -7.00058
-12.3225 -19.9112 -7.00427
-12.3217 -19.9103 -7.00796
-12.321 -19.9095 -7.01165
-12.3202 -19.9086 -7.01534
-12.3194 -19.9078 -7.01903
-12.3186 -19.9069 -7.02272
-12.3178 -19.9061 -7.02641
-12.3171 -19.9052 -7.03011
-12.3163 -19.9044 -7.0338
-12.3155 -19.9035 -7.03749
-12.3147 -19.9027 -7.04118
-12.314 -19.9018 -7.04487
-12.3132 -19.901 -7.04856
-12.3124 -19.9001 -7.05225
-12.3116 -19.8993 -7.05594
-12.3109 -19.8984 -7.05963
-12.3101 -19.8976 -7.06332
-12.3093 -19.8967 -7.06701
-12.3085 -19.8959 -7.0707
-12.3077 -19.895 -7.07439
-12.307 -19.8942 -7.07808
-12.3062 -19.8933 -7.08177
-12.3054 -19.8925 -7.08546
-12.3046 -19.8916 -7.08915
-12.3039 -19.8908 -7.09284
-12.3031 -19.8899 -7.09653
-12.3023 -19.8891 -7.10022
-12.3015 -19.8882 -7.10391
-12.3008 -19.8873 -7.1076
-12.3 -19.8865 -7.11129
-12.2992 -19.8856 -7.11498
-12.2984 -19.8848 -7.11868
-12.2976 -19.8839 -7.12237
-12.2969 -19.8831 -7.12606
-12.2961 -19.8822 -7.12975
-12.2953 -19.8814 -7.13344
-12.2945 -19.8805 -7.13713
-12.2938 -19.8797 -7.14082
-12.293 -19.8788 -7.14451
-12.2922 -19.878 -7.1482
-12.2914 -19.8771 -7.15189
-12.2907 -19.8763 -7.15558
-12.2899 -19.8754 -7.15927
-12.2891 -19.8746 -7.16296
-12.2883 -19.8737 -7.16665
-12.2875 -19.8729 -7.17034
-12.2868 -19.872 -7.17403
-12.286 -19.8712 -7.17772
-12.2852 -19.8703 -7.18141
-12.2844 -19.8695 -7.1851
-12.2837 -19.8686 -7.18879
-12.2829 -19.8678 -7.19248
-12.2821 -19.8669 -7.19617
-12.2813 -19.8661 -7.19986
-12.2806 -19.8652 -7.20356
-12.2798 -19.8644 -7.20725
-12.279 -19.8635 -7.21094
-12.2782 -19.8627 -7.21463
-12.2774 -19.8618 -7.21832
-12.2767 -19.861 -7.22201
-12.2759 -19.8601 -7.2257
-12.2751 -19.8593 -7.22939
-12.2743 -19.8584 -7.23308
-12.2736 -19.8576 -7.23677
-12.2728 -19.8567 -7.24046
-12.272 -19.8559 -7.24415
-12.2712 -19.855 -7.24784
-12.2705 -19.8542 -7.25153
-12.2697 -19.8533 -7.25522
-12.2689 -19.8525 -7.25891
-12.2681 -19.8516 -7.2626
-12.2673 -19.8507 -7.26629
-12.2666 -19.8499 -7.26998
-12.2658 -19.849 -7.27367
-12.265 -19.8482 -7.27736
-12.2642 -19.8473 -7.28105
-12.2635 -19.8465 -7.28474
-12.2627 -19.8456 -7.28843
-12.2619 -19.8448 -7.29213
-12.2611 -19.8439 -7.29582
-12.2604 -19.8431 -7.29951
-12.2596 -19.8422 -7.3032
-12.2588 -19.8414 -7.30689
-12.258 -19.8405 -7.31058
-12.2572 -19.8397 -7.31427
-12.2565 -19.8388 -7.31796
-12.2557 -19.838 -7.32165
-12.2549 -19.8371 -7.32534
-12.2541 -19.8363 -7.32903
-12.2534 -19.8354 -7.33272
-12.2526 -19.8346 -7.33641
-12.2518 -19.8337 -7.3401
-12.251 -19.8329 -7.34379
-12.2503 -19.832 -7.34748
-12.2495 -19.8312 -7.35117
-12.2487 -19.8303 -7.35486
3.61229 -1.99099 0.142458
3.61223 -1.99107 0.139365
3.61218 -1.99115 0.136272
3.61213 -1.99122 0.133179
3.61208 -1.9913 0.130087
3.61202 -1.99138 0.126994
3.61197 -1.99145 0.123901
3.61192 -1.99153 0.120808
3.61187 -1.99161 0.117715
3.61181 -1.99168 0.114622
3.61176 -1.99176 0.111529
3.61171 -1.99183 0.108436
3.61165 -1.99191 0.105343
3.6116 -1.99199 0.10225
3.61155 -1.99206 0.0991574
3.6115 -1.99214 0.0960645
3.61144 -1.99222 0.0929716
3.61139 -1.99229 0.0898787
3.61134 -1.99237 0.0867858
3.61129 -1.99245 0.0836928
3.61123 -1.99252 0.0805999
3.61118 -1.9926 0.077507
3.61113 -1.99268 0.0744141
3.61108 -1.99275 0.0713212
3.61102 -1.99283 0.0682283
3.61097 -1.9929 0.0651354
3.61092 -1.99298 0.0620425
3.61086 -1.99306 0.0589496
3.61081 -1.99313 0.0558566
3.61076 -1.99321 0.0527637
3.61071 -1.99329 0.0496708
3.61065 -1.99336 0.0465779
3.6106 -1.99344 0.043485
3.61055 -1.99352 0.0403921
3.6105 -1.99359 0.0372992
3.61044 -1.99367 0.0342062
3.61039 -1.99375 0.0311133
3.61034 -1.99382 0.0280204
3.61029 -1.9939 0.0249275
3.61023 -1.99397 0.0218346
3.61018 -1.99405 0.0187417
3.61013 -1.99413 0.0156487
3.61007 -1.9942 0.0125558
3.61002 -1.99428 0.00946291
3.60997 -1.99436 0.00637
3.60992 -1.99443 0.00327708
3.60986 -1.99451 0.000184168
3.60981 -1.99459 -0.00290875
3.60976 -1.99466 -0.00600166
3.60971 -1.99474 -0.00909458
3.60965 -1.99481 -0.0121875
3.6096 -1.99489 -0.0152804
3.60955 -1.99497 -0.0183733
3.60949 -1.99504 -0.0214662
3.60944 -1.99512 -0.0245591
3.60939 -1.9952 -0.0276521
3.60934 -1.99527 -0.030745
3.60928 -1.99535 -0.0338379
3.60923 -1.99543 -0.0369308
3.60918 -1.9955 -0.0400237
3.60913 -1.99558 -0.0431166
3.60907 -1.99566 -0.0462096
3.60902 -1.99573 -0.0493025
3.60897 -1.99581 -0.0523954
3.60892 -1.99588 -0.0554883
3.60886 -1.99596 -0.0585812
3.60881 -1.99604 -0.0616741
3.60876 -1.99611 -0.064767
3.6087 -1.99619 -0.06786
3.60865 -1.99627 -0.0709529
3.6086 -1.99634 -0.0740458
3.60855 -1.99642 -0.0771387
3.60849 -1.9965 -0.0802316
3.60844 -1.99657 -0.0833245
3.60839 -1.99665 -0.0864175
3.60834 -1.99673 -0.0895104
3.60828 -1.9968 -0.0926033
3.60823 -1.99688 -0.0956962
3.60818 -1.99695 -0.0987891
3.60813 -1.99703 -0.101882
3.60807 -1.99711 -0.104975
3.60802 -1.99718 -0.108068
3.60797 -1.99726 -0.111161
3.60791 -1.99734 -0.114254
3.60786 -1.99741 -0.117347
3.60781 -1.99749 -0.120439
3.60776 -1.99757 -0.123532
3.6077 -1.99764 -0.126625
3.60765 -1.99772 -0.129718
3.6076 -1.9978 -0.132811
3.60755 -1.99787 -0.135904
3.60749 -1.99795 -0.138997
3.60744 -1.99802 -0.14209
3.60739 -1.9981 -0.145183
3.60734 -1.99818 -0.148276
3.60728 -1.99825 -0.151369
3.60723 -1.99833 -0.154462
3.60718 -1.99841 -0.157554
3.60712 -1.99848 -0.160647
3.60707 -1.99856 -0.16374
3.60702 -1.99864 -0.166833
3.64063 -1.90393 10.0172
3.64149 -1.90408 9.81721
3.64235 -1.90424 9.61722
3.64321 -1.90439 9.41722
3.64407 -1.90454 9.21722
3.64493 -1.9047 9.01722
3.64579 -1.90485 8.81723
3.64665 -1.905 8.61723
3.64751 -1.90516 8.41723
3.64838 -1.90531 8.21723
3.64924 -1.90546 8.01724
3.6501 -1.90562 7.81724
3.65096 -1.90577 7.61724
3.65182 -1.90592 7.41724
3.65268 -1.90608 7.21725
3.65354 -1.90623 7.01725
3.6544 -1.90638 6.81725
3.65527 -1.90654 6.61725
3.65613 -1.90669 6.41726
3.65699 -1.90684 6.21726
3.65785 -1.907 6.01726
3.65871 -1.90715 5.81726
3.65957 -1.9073 5.61727
3.66043 -1.90746 5.41727
3.66129 -1.90761 5.21727
3.66216 -1.90777 5.01727
3.66302 -1.90792 4.81728
3.66388 -1.90807 4.61728
3.66474 -1.90823 4.41728
3.6656 -1.90838 4.21728
3.66646 -1.90853 4.01729
3.66732 -1.90869 3.81729
3.66818 -1.90884 3.61729
3.66905 -1.90899 3.41729
3.66991 -1.90915 3.2173
3.67077 -1.9093 3.0173
3.67163 -1.90945 2.8173
3.67249 -1.90961 2.6173
3.67335 -1.90976 2.41731
3.67421 -1.90991 2.21731
3.67507 -1.91007 2.01731
3.67593 -1.91022 1.81731
3.6768 -1.91037 1.61731
3.67766 -1.91053 1.41732
3.67852 -1.91068 1.21732
3.67938 -1.91083 1.01732
3.68024 -1.91099 0.817324
3.6811 -1.91114 0.617326
3.68196 -1.91129 0.417329
3.68282 -1.91145 0.217331
3.68369 -1.9116 0.0173333
3.68455 -1.91175 -0.182664
3.68541 -1.91191 -0.382662
3.68627 -1.91206 -0.58266
3.68713 -1.91221 -0.782657
3.68799 -1.91237 -0.982655
3.68885 -1.91252 -1.18265
3.68971 -1.91267 -1.38265
3.69058 -1.91283 -1.58265
3.69144 -1.91298 -1.78265
3.6923 -1.91313 -1.98264
3.69316 -1.91329 -2.18264
3.69402 -1.91344 -2.38264
3.69488 -1.91359 -2.58264
3.69574 -1.91375 -2.78263
3.6966 -1.9139 -2.98263
3.69747 -1.91405 -3.18263
3.69833 -1.91421 -3.38263
3.69919 -1.91436 -3.58262
3.70005 -1.91451 -3.78262
3.70091 -1.91467 -3.98262
3.70177 -1.91482 -4.18262
3.70263 -1.91497 -4.38262
3.70349 -1.91513 -4.58261
3.70435 -1.91528 -4.78261
3.70522 -1.91543 -4.98261
3.70608 -1.91559 -5.1826
3.70694 -1.91574 -5.3826
3.7078 -1.91589 -5.5826
3.70866 -1.91605 -5.7826
3.70952 -1.9162 -5.98259
3.71038 -1.91635 -6.18259
3.71124 -1.91651 -6.38259
3.71211 -1.91666 -6.58259
3.71297 -1.91681 -6.78258
3.71383 -1.91697 -6.98258
3.71469 -1.91712 -7.18258
3.71555 -1.91727 -7.38258
3.71641 -1.91743 -7.58257
3.71727 -1.91758 -7.78257
3.71813 -1.91773 -7.98257
3.719 -1.91789 -8.18257
3.71986 -1.91804 -8.38256
3.72072 -1.91819 -8.58256
3.72158 -1.91835 -8.78256
3.72244 -1.9185 -8.98256
3.7233 -1.91865 -9.18255
3.72416 -1.91881 -9.38255
3.72502 -1.91896 -9.58255
3.72589 -1.91911 -9.78255
3.72675 -1.91927 -9.98254
9.64743 4.78824 1.45025
9.51437 4.63893 1.44932
9.38131 4.48962 1.44839
9.24825 4.34031 1.44745
9.11519 4.191 1.44652
8.98213 4.04169 1.44559
8.84907 3.89238 1.44465
8.71601 3.74307 1.44372
8.58295 3.59376 1.44279
8.44989 3.44445 1.44185
8.31682 3.29514 1.44092
8.18376 3.14583 1.43998
8.0507 2.99652 1.43905
7.91764 2.84721 1.43812
7.78458 2.6979 1.43718
7.65152 2.54859 1.43625
7.51846 2.39928 1.43532
7.3854 2.24997 1.43438
7.25234 2.10066 1.43345
7.11928 1.95134 1.43252
6.98622 1.80203 1.43158
6.85316 1.65272 1.43065
6.7201 1.50341 1.42971
6.58704 1.3541 1.42878
6.45397 1.20479 1.42785
6.32091 1.05548 1.42691
6.18785 0.906172 1.42598
6.05479 0.756862 1.42505
5.92173 0.607552 1.42411
5.78867 0.458241 1.42318
5.65561 0.308931 1.42225
5.52255 0.15962 1.42131
